ply
format ascii 1.0
comment created by 3d_to_ply
element vertex 50
property float32 x
property float32 y
property float32 z
property uint8 red
property uint8 green
property uint8 blue
end_header
-4.901926 4.490385 10.000000 255 255 255
-4.901922 9.490378 10.000000 255 255 255
-4.901924 14.490381 10.000000 255 255 255
-4.901910 19.490358 10.000000 255 255 255
-4.901947 24.490421 10.000000 255 255 255
-4.901926 4.490385 5.000000 255 255 255
-4.901922 9.490378 5.000000 255 255 255
-4.901924 14.490381 5.000000 255 255 255
-4.901910 19.490358 5.000000 255 255 255
-4.901947 24.490421 5.000000 255 255 255
-4.901926 4.490385 0.000000 255 255 255
-4.901922 9.490378 0.000000 255 255 255
-4.901924 14.490381 0.000000 255 255 255
-4.901910 19.490358 0.000000 255 255 255
-4.901947 24.490421 0.000000 255 255 255
-4.901926 4.490385 -5.000000 255 255 255
-4.901922 9.490378 -5.000000 255 255 255
-4.901924 14.490381 -5.000000 255 255 255
-4.901910 19.490358 -5.000000 255 255 255
-4.901947 24.490421 -5.000000 255 255 255
-4.901926 4.490385 -10.000000 255 255 255
-4.901922 9.490378 -10.000000 255 255 255
-4.901924 14.490381 -10.000000 255 255 255
-4.901910 19.490358 -10.000000 255 255 255
-4.901947 24.490421 -10.000000 255 255 255
19.346786 20.490384 8.000000 255 255 255
15.882685 22.490382 8.000000 255 255 255
12.418584 24.490381 8.000000 255 255 255
8.954483 26.490380 8.000000 255 255 255
5.490383 28.490378 8.000000 255 255 255
19.346786 20.490384 4.000000 255 255 255
15.882685 22.490382 4.000000 255 255 255
12.418584 24.490381 4.000000 255 255 255
8.954483 26.490380 4.000000 255 255 255
5.490383 28.490378 4.000000 255 255 255
19.346786 20.490384 0.000000 255 255 255
15.882685 22.490382 0.000000 255 255 255
12.418584 24.490381 0.000000 255 255 255
8.954483 26.490380 0.000000 255 255 255
5.490383 28.490378 0.000000 255 255 255
19.346786 20.490384 -4.000000 255 255 255
15.882685 22.490382 -4.000000 255 255 255
12.418584 24.490381 -4.000000 255 255 255
8.954483 26.490380 -4.000000 255 255 255
5.490383 28.490378 -4.000000 255 255 255
19.346786 20.490384 -8.000000 255 255 255
15.882685 22.490382 -8.000000 255 255 255
12.418584 24.490381 -8.000000 255 255 255
8.954483 26.490380 -8.000000 255 255 255
5.490383 28.490378 -8.000000 255 255 255
