ply
format ascii 1.0
element vertex 421
property float x
property float y
property float z
end_header
0 0 0
-0.195358 -0.440945 -0.131918
-0.253965 -0.573229 -0.171493
-0.312573 -0.705513 -0.211069
-0.37118 -0.837796 -0.250644
-0.429788 -0.97008 -0.29022
-0.488395 -1.10236 -0.329795
-0.547002 -1.23465 -0.36937
-0.60561 -1.36693 -0.408946
-0.664217 -1.49921 -0.448521
-0.722825 -1.6315 -0.488096
-0.781432 -1.76378 -0.527672
-0.840039 -1.89607 -0.567247
-0.898647 -2.02835 -0.606823
-0.957254 -2.16063 -0.646398
-1.01586 -2.29292 -0.685973
-1.07447 -2.4252 -0.725549
-1.13308 -2.55748 -0.765124
-1.19168 -2.68977 -0.8047
-1.25029 -2.82205 -0.844275
-1.3089 -2.95433 -0.88385
-1.36751 -3.08662 -0.923426
-1.42611 -3.2189 -0.963001
-1.48472 -3.35119 -1.00258
-1.54333 -3.48347 -1.04215
-1.60194 -3.61575 -1.08173
-1.66054 -3.74804 -1.1213
-1.71915 -3.88032 -1.16088
-1.77776 -4.0126 -1.20045
-1.83637 -4.14489 -1.24003
-1.89497 -4.27717 -1.2796
-0.141675 -0.45901 -0.138701
-0.184178 -0.596713 -0.180311
-0.22668 -0.734416 -0.221922
-0.269183 -0.872119 -0.263532
-0.311685 -1.00982 -0.305142
-0.354188 -1.14752 -0.346753
-0.39669 -1.28523 -0.388363
-0.439193 -1.42293 -0.429973
-0.481695 -1.56063 -0.471584
-0.524198 -1.69834 -0.513194
-0.5667 -1.83604 -0.554804
-0.609203 -1.97374 -0.596415
-0.651705 -2.11145 -0.638025
-0.694208 -2.24915 -0.679635
-0.736711 -2.38685 -0.721246
-0.779213 -2.52455 -0.762856
-0.821716 -2.66226 -0.804466
-0.864218 -2.79996 -0.846077
-0.906721 -2.93766 -0.887687
-0.949223 -3.07537 -0.929297
-0.991726 -3.21307 -0.970908
-1.03423 -3.35077 -1.01252
-1.07673 -3.48848 -1.05413
-1.11923 -3.62618 -1.09574
-1.16174 -3.76388 -1.13735
-1.20424 -3.90158 -1.17896
-1.24674 -4.03929 -1.22057
-1.28924 -4.17699 -1.26218
-1.33175 -4.31469 -1.30379
-1.37425 -4.4524 -1.3454
-0.122343 -0.46423 -0.139723
-0.159047 -0.603499 -0.181639
-0.19575 -0.742768 -0.223556
-0.232453 -0.882037 -0.265473
-0.269156 -1.02131 -0.30739
-0.305859 -1.16058 -0.349306
-0.342562 -1.29984 -0.391223
-0.379265 -1.43911 -0.43314
-0.415968 -1.57838 -0.475057
-0.452671 -1.71765 -0.516973
-0.489374 -1.85692 -0.55889
-0.526077 -1.99619 -0.600807
-0.56278 -2.13546 -0.642724
-0.599483 -2.27473 -0.684641
-0.636186 -2.414 -0.726557
-0.672889 -2.55327 -0.768474
-0.709592 -2.69254 -0.810391
-0.746295 -2.8318 -0.852308
-0.782998 -2.97107 -0.894224
-0.819701 -3.11034 -0.936141
-0.856404 -3.24961 -0.978058
-0.893107 -3.38888 -1.01997
-0.92981 -3.52815 -1.06189
-0.966513 -3.66742 -1.10381
-1.00322 -3.80669 -1.14572
-1.03992 -3.94596 -1.18764
-1.07662 -4.08523 -1.22956
-1.11333 -4.22449 -1.27148
-1.15003 -4.36376 -1.31339
-1.18673 -4.50303 -1.35531
-0.0626539 -0.474759 -0.143799
-0.08145 -0.617187 -0.186939
-0.100246 -0.759615 -0.230078
-0.119042 -0.902043 -0.273218
-0.137838 -1.04447 -0.316358
-0.156635 -1.1869 -0.359497
-0.175431 -1.32933 -0.402637
-0.194227 -1.47175 -0.445776
-0.213023 -1.61418 -0.488916
-0.231819 -1.75661 -0.532056
-0.250615 -1.89904 -0.575195
-0.269412 -2.04146 -0.618335
-0.288208 -2.18389 -0.661475
-0.307004 -2.32632 -0.704614
-0.3258 -2.46875 -0.747754
-0.344596 -2.61118 -0.790894
-0.363392 -2.7536 -0.834033
-0.382189 -2.89603 -0.877173
-0.400985 -3.03846 -0.920313
-0.419781 -3.18089 -0.963452
-0.438577 -3.32332 -1.00659
-0.457373 -3.46574 -1.04973
-0.476169 -3.60817 -1.09287
-0.494965 -3.7506 -1.13601
-0.513762 -3.89303 -1.17915
-0.532558 -4.03545 -1.22229
-0.551354 -4.17788 -1.26543
-0.57015 -4.32031 -1.30857
-0.588946 -4.46274 -1.35171
-0.607742 -4.60517 -1.39485
0.474123 0.100685 0.122758
0.61636 0.130891 0.159586
0.758597 0.161097 0.196413
0.900834 0.191302 0.233241
1.04307 0.221508 0.270068
1.18531 0.251713 0.306896
1.32755 0.281919 0.343723
1.46978 0.312124 0.380551
1.61202 0.34233 0.417378
1.75426 0.372536 0.454206
1.89649 0.402741 0.491033
2.03873 0.432947 0.527861
2.18097 0.463152 0.564688
2.3232 0.493358 0.601516
2.46544 0.523564 0.638343
2.60768 0.553769 0.675171
2.74991 0.583975 0.711998
2.89215 0.61418 0.748826
3.03439 0.644386 0.785654
3.17663 0.674592 0.822481
3.31886 0.704797 0.859309
3.4611 0.735003 0.896136
3.60334 0.765208 0.932964
3.74557 0.795414 0.969791
3.88781 0.82562 1.00662
4.03005 0.855825 1.04345
4.17228 0.886031 1.08027
4.31452 0.916236 1.1171
4.45676 0.946442 1.15393
4.599 0.976648 1.19076
0.484919 -0.0128845 0.121193
0.630394 -0.0167499 0.157551
0.77587 -0.0206152 0.193909
0.921346 -0.0244806 0.230267
1.06682 -0.0283459 0.266625
1.2123 -0.0322113 0.302983
1.35777 -0.0360766 0.339341
1.50325 -0.039942 0.375699
1.64872 -0.0438074 0.412057
1.7942 -0.0476727 0.448416
1.93967 -0.0515381 0.484774
2.08515 -0.0554034 0.521132
2.23063 -0.0592688 0.55749
2.3761 -0.0631341 0.593848
2.52158 -0.0669995 0.630206
2.66705 -0.0708648 0.666564
2.81253 -0.0747302 0.702922
2.958 -0.0785956 0.73928
3.10348 -0.0824609 0.775638
3.24896 -0.0863263 0.811996
3.39443 -0.0901916 0.848354
3.53991 -0.094057 0.884712
3.68538 -0.0979223 0.92107
3.83086 -0.101788 0.957428
3.97633 -0.105653 0.993786
4.12181 -0.109518 1.03014
4.26728 -0.113384 1.0665
4.41276 -0.117249 1.10286
4.55824 -0.121114 1.13922
4.70371 -0.12498 1.17558
0.453922 0.0929651 -0.187916
0.590098 0.120855 -0.244291
0.726275 0.148744 -0.300666
0.862451 0.176634 -0.357041
0.998628 0.204523 -0.413415
1.1348 0.232413 -0.46979
1.27098 0.260302 -0.526165
1.40716 0.288192 -0.58254
1.54333 0.316081 -0.638915
1.67951 0.343971 -0.69529
1.81569 0.37186 -0.751664
1.95186 0.39975 -0.808039
2.08804 0.427639 -0.864414
2.22422 0.455529 -0.920789
2.36039 0.483419 -0.977164
2.49657 0.511308 -1.03354
2.63275 0.539198 -1.08991
2.76892 0.567087 -1.14629
2.9051 0.594977 -1.20266
3.04128 0.622866 -1.25904
3.17745 0.650756 -1.31541
3.31363 0.678645 -1.37179
3.44981 0.706535 -1.42816
3.58598 0.734424 -1.48454
3.72216 0.762314 -1.54091
3.85834 0.790203 -1.59729
3.99451 0.818093 -1.65366
4.13069 0.845982 -1.71004
4.26687 0.873872 -1.76641
4.40304 0.901762 -1.82279
0.464917 -0.0132341 -0.183514
0.604392 -0.0172043 -0.238568
0.743867 -0.0211746 -0.293622
0.883342 -0.0251448 -0.348677
1.02282 -0.0291151 -0.403731
1.16229 -0.0330853 -0.458785
1.30177 -0.0370555 -0.513839
1.44124 -0.0410258 -0.568893
1.58072 -0.044996 -0.623948
1.72019 -0.0489662 -0.679002
1.85967 -0.0529365 -0.734056
1.99914 -0.0569067 -0.78911
2.13862 -0.0608769 -0.844164
2.27809 -0.0648472 -0.899219
2.41757 -0.0688174 -0.954273
2.55704 -0.0727876 -1.00933
2.69652 -0.0767579 -1.06438
2.83599 -0.0807281 -1.11944
2.97547 -0.0846983 -1.17449
3.11494 -0.0886686 -1.22954
3.25442 -0.0926388 -1.2846
3.39389 -0.096609 -1.33965
3.53337 -0.100579 -1.39471
3.67284 -0.104549 -1.44976
3.81232 -0.10852 -1.50481
3.95179 -0.11249 -1.55987
4.09127 -0.11646 -1.61492
4.23074 -0.12043 -1.66998
4.37022 -0.124401 -1.72503
4.50969 -0.128371 -1.78009
-0.000578898 0.476003 0.153037
-0.000752568 0.618804 0.198949
-0.000926237 0.761605 0.24486
-0.00109991 0.904406 0.290771
-0.00127358 1.04721 0.336682
-0.00144725 1.19001 0.382594
-0.00162091 1.33281 0.428505
-0.00179458 1.47561 0.474416
-0.00196825 1.61841 0.520327
-0.00214192 1.76121 0.566239
-0.00231559 1.90401 0.61215
-0.00248926 2.04681 0.658061
-0.00266293 2.18962 0.703972
-0.0028366 2.33242 0.749884
-0.00301027 2.47522 0.795795
-0.00318394 2.61802 0.841706
-0.00335761 2.76082 0.887617
-0.00353128 2.90362 0.933529
-0.00370495 3.04642 0.97944
-0.00387862 3.18922 1.02535
-0.00405229 3.33202 1.07126
-0.00422596 3.47482 1.11717
-0.00439963 3.61763 1.16308
-0.00457329 3.76043 1.209
-0.00474696 3.90323 1.25491
-0.00492063 4.04603 1.30082
-0.0050943 4.18883 1.34673
-0.00526797 4.33163 1.39264
-0.00544164 4.47443 1.43855
-0.00561531 4.61723 1.48446
0.0692485 0.470784 0.153514
0.090023 0.61202 0.199569
0.110798 0.753255 0.245623
0.131572 0.89449 0.291677
0.152347 1.03573 0.337731
0.173121 1.17696 0.383786
0.193896 1.3182 0.42984
0.21467 1.45943 0.475894
0.235445 1.60067 0.521949
0.256219 1.7419 0.568003
0.276994 1.88314 0.614057
0.297768 2.02437 0.660112
0.318543 2.16561 0.706166
0.339317 2.30684 0.75222
0.360092 2.44808 0.798274
0.380867 2.58931 0.844329
0.401641 2.73055 0.890383
0.422416 2.87179 0.936437
0.44319 3.01302 0.982492
0.463965 3.15426 1.02855
0.484739 3.29549 1.0746
0.505514 3.43673 1.12065
0.526288 3.57796 1.16671
0.547063 3.7192 1.21276
0.567837 3.86043 1.25882
0.588612 4.00167 1.30487
0.609386 4.1429 1.35093
0.630161 4.28414 1.39698
0.650936 4.42537 1.44303
0.67171 4.56661 1.48909
-0.00147347 0.499875 0.011098
-0.00191551 0.649837 0.0144275
-0.00235754 0.799799 0.0177569
-0.00279958 0.949762 0.0210863
-0.00324162 1.09972 0.0244157
-0.00368366 1.24969 0.0277451
-0.0041257 1.39965 0.0310745
-0.00456774 1.54961 0.0344039
-0.00500978 1.69957 0.0377333
-0.00545182 1.84954 0.0410628
-0.00589386 1.9995 0.0443922
-0.0063359 2.14946 0.0477216
-0.00677794 2.29942 0.051051
-0.00721998 2.44939 0.0543804
-0.00766202 2.59935 0.0577098
-0.00810406 2.74931 0.0610392
-0.0085461 2.89927 0.0643686
-0.00898814 3.04924 0.0676981
-0.00943018 3.1992 0.0710275
-0.00987222 3.34916 0.0743569
-0.0103143 3.49912 0.0776863
-0.0107563 3.64908 0.0810157
-0.0111983 3.79905 0.0843451
-0.0116404 3.94901 0.0876745
-0.0120824 4.09897 0.0910039
-0.0125245 4.24893 0.0943333
-0.0129665 4.3989 0.0976628
-0.0134085 4.54886 0.100992
-0.0138506 4.69882 0.104322
-0.0142926 4.84878 0.107651
0.0813089 0.493236 0.010357
0.105702 0.641207 0.0134641
0.130094 0.789177 0.0165712
0.154487 0.937148 0.0196783
0.17888 1.08512 0.0227854
0.203272 1.23309 0.0258924
0.227665 1.38106 0.0289995
0.252058 1.52903 0.0321066
0.27645 1.677 0.0352137
0.300843 1.82497 0.0383208
0.325236 1.97294 0.0414279
0.349628 2.12091 0.044535
0.374021 2.26888 0.0476421
0.398414 2.41686 0.0507492
0.422806 2.56483 0.0538563
0.447199 2.7128 0.0569634
0.471592 2.86077 0.0600705
0.495984 3.00874 0.0631776
0.520377 3.15671 0.0662847
0.54477 3.30468 0.0693918
0.569162 3.45265 0.0724988
0.593555 3.60062 0.0756059
0.617948 3.74859 0.078713
0.64234 3.89656 0.0818201
0.666733 4.04453 0.0849272
0.691126 4.1925 0.0880343
0.715518 4.34048 0.0911414
0.739911 4.48845 0.0942485
0.764304 4.63642 0.0973556
0.788696 4.78439 0.100463
-0.403173 -0.273233 0.113116
-0.524125 -0.355203 0.147051
-0.645077 -0.437173 0.180986
-0.766029 -0.519143 0.214921
-0.88698 -0.601113 0.248855
-1.00793 -0.683083 0.28279
-1.12888 -0.765053 0.316725
-1.24984 -0.847023 0.35066
-1.37079 -0.928993 0.384595
-1.49174 -1.01096 0.418529
-1.61269 -1.09293 0.452464
-1.73364 -1.1749 0.486399
-1.8546 -1.25687 0.520334
-1.97555 -1.33884 0.554269
-2.0965 -1.42081 0.588203
-2.21745 -1.50278 0.622138
-2.3384 -1.58475 0.656073
-2.45935 -1.66672 0.690008
-2.58031 -1.74869 0.723943
-2.70126 -1.83066 0.757878
-2.82221 -1.91263 0.791812
-2.94316 -1.9946 0.825747
-3.06411 -2.07657 0.859682
-3.18507 -2.15854 0.893617
-3.30602 -2.24051 0.927552
-3.42697 -2.32248 0.961486
-3.54792 -2.40445 0.995421
-3.66887 -2.48642 1.02936
-3.78983 -2.56839 1.06329
-3.91078 -2.65036 1.09723
-0.416211 -0.255688 0.106733
-0.541075 -0.332394 0.138753
-0.665938 -0.409101 0.170773
-0.790801 -0.485807 0.202793
-0.915665 -0.562513 0.234813
-1.04053 -0.63922 0.266833
-1.16539 -0.715926 0.298853
-1.29025 -0.792632 0.330872
-1.41512 -0.869339 0.362892
-1.53998 -0.946045 0.394912
-1.66484 -1.02275 0.426932
-1.78971 -1.09946 0.458952
-1.91457 -1.17616 0.490972
-2.03943 -1.25287 0.522992
-2.1643 -1.32958 0.555012
-2.28916 -1.40628 0.587032
-2.41402 -1.48299 0.619052
-2.53889 -1.5597 0.651072
-2.66375 -1.6364 0.683092
-2.78861 -1.71311 0.715111
-2.91348 -1.78982 0.747131
-3.03834 -1.86652 0.779151
-3.16321 -1.94323 0.811171
-3.28807 -2.01993 0.843191
-3.41293 -2.09664 0.875211
-3.5378 -2.17335 0.907231
-3.66266 -2.25005 0.939251
-3.78752 -2.32676 0.971271
-3.91239 -2.40347 1.00329
-4.03725 -2.48017 1.03531
