ply
format ascii 1.0
element vertex 1823
property float x
property float y
property float z
end_header
-5.09721 -0.294795 1.52985
-5.08845 -0.280034 1.52698
-5.07969 -0.264438 1.52411
-5.0805 -0.248477 1.52411
-5.08068 -0.233379 1.52588
-5.08143 -0.216528 1.52588
-5.09142 -0.200042 1.52965
-5.09182 -0.18226 1.53054
-5.09261 -0.167159 1.52965
-5.07452 -0.149722 1.52212
-5.08401 -0.134016 1.52677
-5.07534 -0.118721 1.52212
-5.08551 -0.103863 1.52411
-5.06637 -0.088433 1.51925
-5.06661 -0.073402 1.51925
-5.06656 -0.05748 1.52014
-5.08561 -0.040831 1.52677
-5.07614 -0.023922 1.5239
-5.06635 -0.007073 1.52191
-5.07619 0.008859 1.5239
-5.0567 0.026478 1.51903
-5.06644 0.042445 1.52102
-5.01893 0.056939 1.50489
-1.9826 0.02803 0.59449
-1.87716 0.03211 0.562899
-1.86747 0.037814 0.560027
-1.85767 0.043454 0.557479
-1.88615 0.050049 0.56643
-2.0584 0.061452 0.617825
-5.03482 0.167901 1.51327
-5.06298 0.184767 1.52191
-5.06234 0.201555 1.52191
-5.04285 0.215766 1.51527
-5.0519 0.233823 1.51726
-5.04196 0.246593 1.51351
-5.04094 0.261539 1.51439
-5.03089 0.275106 1.51064
-5.03925 0.292326 1.51439
-5.08364 -0.29401 1.54032
-5.08529 -0.278971 1.53765
-5.07654 -0.263386 1.53476
-5.07707 -0.247422 1.53565
-5.07805 -0.23237 1.53476
-5.07799 -0.215494 1.53742
-5.07845 -0.197757 1.53831
-5.06018 -0.181128 1.53163
-5.07959 -0.165844 1.53831
-5.08011 -0.149 1.53831
-5.08055 -0.133038 1.53831
-5.07162 -0.117748 1.53452
-5.07249 -0.102712 1.53275
-5.0632 -0.087494 1.52986
-5.07274 -0.072605 1.53364
-5.07268 -0.055778 1.53452
-5.08241 -0.039918 1.53742
-5.07267 -0.02302 1.53541
-5.07299 -0.006197 1.53452
-5.07271 0.010624 1.53541
-5.06308 0.026511 1.53251
-5.06324 0.042419 1.53163
-5.06282 0.058321 1.53251
-2.07695 0.030089 0.627924
-1.88564 0.032585 0.569393
-1.86629 0.03779 0.563938
-1.87583 0.043879 0.566502
-1.89452 0.050602 0.573275
-2.09502 0.063277 0.634809
-5.06004 0.169627 1.5334
-5.05922 0.185514 1.53428
-5.04874 0.201896 1.53226
-5.05845 0.218202 1.53251
-5.03866 0.23233 1.52672
-5.04808 0.246892 1.52785
-5.03799 0.262267 1.52408
-5.06559 0.278777 1.53364
-5.03576 0.293005 1.52584
-5.06983 -0.292324 1.55161
-5.08977 -0.278325 1.55745
-5.09112 -0.263251 1.55567
-5.08286 -0.247704 1.55098
-5.09267 -0.231257 1.55567
-5.08382 -0.214852 1.55275
-5.06512 -0.197238 1.5478
-5.08405 -0.181094 1.55631
-5.08462 -0.164232 1.55631
-5.08486 -0.147363 1.55719
-5.06643 -0.131784 1.55045
-5.08646 -0.117205 1.55453
-5.0775 -0.101927 1.55072
-5.06875 -0.086705 1.54603
-5.07909 -0.071809 1.54717
-5.06919 -0.05574 1.54603
-5.07837 -0.039 1.55072
-5.06864 -0.021233 1.54869
-5.05858 -0.005297 1.54753
-5.05884 0.011478 1.54665
-5.04922 0.02732 1.54372
-5.08681 0.043504 1.55719
-5.06806 0.060151 1.54957
-2.08463 0.030565 0.637006
-1.8935 0.033051 0.577904
-1.88402 0.038807 0.574328
-1.86457 0.044267 0.569148
-1.90256 0.051149 0.581155
-2.09358 0.063233 0.639563
-5.06527 0.170687 1.55045
-5.06471 0.1866 1.55045
-5.04468 0.202615 1.54548
-5.03447 0.218048 1.54256
-5.03434 0.233011 1.5408
-5.05326 0.248914 1.54488
-5.0438 0.26257 1.53932
-5.05251 0.278941 1.54223
-5.04179 0.294238 1.5402
-5.07599 -0.290013 1.56607
-5.0872 -0.275513 1.56635
-5.0784 -0.260816 1.56341
-5.06965 -0.244399 1.56047
-5.07093 -0.228497 1.5587
-5.08067 -0.212054 1.56341
-5.09062 -0.195562 1.56723
-5.08142 -0.178334 1.56518
-5.07186 -0.162048 1.56401
-5.08192 -0.145502 1.56696
-5.08235 -0.129535 1.56696
-5.07316 -0.11424 1.56401
-5.07373 -0.100079 1.56313
-5.07429 -0.084142 1.56224
-5.05569 -0.067948 1.55547
-5.06571 -0.052165 1.55753
-5.06557 -0.036249 1.55841
-5.06513 -0.018564 1.56018
-5.07444 -0.001771 1.56401
-5.03593 0.014062 1.55311
-5.08391 0.03017 1.56696
-5.07396 0.046051 1.5649
-5.06424 0.061876 1.56195
-2.06428 0.030987 0.635127
-1.89227 0.03402 0.58187
-1.8826 0.039435 0.578931
-1.8729 0.045446 0.575992
-1.91086 0.052707 0.588081
-2.13029 0.065831 0.656082
-5.05267 0.172028 1.55724
-5.04225 0.188417 1.55517
-5.0416 0.205135 1.55517
-5.04093 0.220975 1.55517
-5.03998 0.235917 1.55606
-5.03985 0.250016 1.55429
-5.04858 0.266353 1.55724
-5.03877 0.280829 1.55253
-5.04794 0.29725 1.55371
-5.10131 -0.291459 1.58561
-5.07327 -0.274759 1.5776
-5.09369 -0.260708 1.58175
-5.1043 -0.245177 1.58382
-5.05734 -0.227 1.56902
-5.08693 -0.212315 1.57701
-5.06824 -0.194702 1.57198
-5.08768 -0.178553 1.57879
-5.07842 -0.16137 1.57672
-5.0688 -0.145127 1.57552
-5.08888 -0.129701 1.57968
-5.07971 -0.113501 1.57672
-5.08001 -0.099314 1.57672
-5.07101 -0.084088 1.57287
-5.07125 -0.068157 1.57287
-5.07172 -0.051342 1.57198
-5.08195 -0.036366 1.57317
-5.0815 -0.017737 1.57494
-5.07143 -0.00177 1.57375
-5.06186 0.014135 1.57079
-5.06096 0.030917 1.57344
-5.06139 0.04682 1.57167
-5.05195 0.061725 1.56782
-2.08182 0.031614 0.646097
-1.88128 0.034151 0.58353
-1.87172 0.039861 0.580241
-1.88093 0.045969 0.583859
-1.90008 0.05241 0.589123
-2.09061 0.064604 0.649061
-5.05892 0.173125 1.57079
-5.05804 0.189891 1.57167
-5.04757 0.206261 1.56959
-5.05648 0.221656 1.57255
-5.0468 0.236236 1.56782
-5.05535 0.251669 1.57167
-5.05485 0.266684 1.57079
-5.03496 0.280617 1.56486
-5.06321 0.298149 1.57198
-5.07825 -0.287474 1.593
-5.08912 -0.273836 1.59421
-5.07084 -0.257764 1.58824
-5.08144 -0.242301 1.59034
-5.07264 -0.225912 1.58735
-5.0829 -0.209481 1.59034
-5.10267 -0.192458 1.5963
-5.0839 -0.175756 1.59122
-5.08442 -0.159784 1.59122
-5.07539 -0.142656 1.58824
-5.0845 -0.127814 1.59389
-5.07531 -0.112517 1.5909
-5.07618 -0.097466 1.58912
-5.07644 -0.082406 1.58912
-5.07696 -0.066462 1.58824
-5.07742 -0.049627 1.58735
-5.0871 -0.03374 1.59034
-5.06837 -0.016806 1.58348
-5.05858 0 1.58139
-5.06754 0.016804 1.58614
-5.06746 0.032725 1.58614
-5.07632 0.04873 1.5909
-5.05708 0.063553 1.58492
-2.08022 0.032316 0.651183
-1.90836 0.035309 0.597415
-1.87973 0.04036 0.588126
-1.87969 0.046267 0.587798
-1.89861 0.053034 0.593765
-2.11783 0.066556 0.662391
-5.03621 0.174107 1.5763
-5.05468 0.191531 1.58227
-5.06358 0.2078 1.58525
-5.04301 0.222829 1.58193
-5.06111 0.238676 1.58879
-5.04215 0.252777 1.58016
-5.06044 0.26875 1.58614
-5.05004 0.284109 1.58315
-5.10219 -0.301337 1.61446
-5.0745 -0.284597 1.60542
-5.10384 -0.271948 1.61446
-5.07633 -0.255378 1.60454
-5.08664 -0.23988 1.60755
-5.08764 -0.223912 1.60666
-5.07855 -0.206639 1.60454
-5.07896 -0.188901 1.60542
-5.08009 -0.172961 1.60365
-5.08989 -0.156399 1.60755
-5.06145 -0.140496 1.5994
-5.0714 -0.124828 1.60241
-5.08102 -0.109094 1.60631
-5.07205 -0.094731 1.60241
-5.06306 -0.079537 1.59852
-5.063 -0.063628 1.5994
-5.07271 -0.04781 1.60241
-5.07313 -0.030105 1.60153
-5.07292 -0.014165 1.60241
-5.07322 0.002656 1.60153
-5.04485 0.01937 1.59161
-5.06328 0.035349 1.5994
-5.05361 0.051158 1.59639
-5.05314 0.067032 1.59727
-2.06885 0.032861 0.653976
-1.88771 0.035916 0.596386
-1.88758 0.041847 0.596386
-1.87791 0.047535 0.593374
-1.89692 0.05398 0.599067
-2.12535 0.067906 0.671687
-5.051 0.178149 1.5955
-5.05995 0.194384 1.59852
-5.04923 0.209859 1.59727
-5.0393 0.225309 1.59337
-5.05765 0.241167 1.5994
-5.04739 0.255689 1.59639
-5.02789 0.268781 1.58948
-5.05558 0.286191 1.59852
-5.08901 -0.300559 1.62302
-5.08992 -0.284571 1.62302
-5.08123 -0.268965 1.61999
-5.08168 -0.254758 1.62087
-5.0923 -0.238365 1.62302
-5.09302 -0.222367 1.62302
-5.103 -0.204958 1.62694
-5.08486 -0.188231 1.61999
-5.08518 -0.171358 1.62087
-5.07619 -0.154205 1.61784
-5.07721 -0.138271 1.61606
-5.0678 -0.122969 1.61392
-5.08747 -0.108345 1.6191
-5.05891 -0.092719 1.61088
-5.07793 -0.077998 1.61784
-5.05938 -0.061816 1.61088
-5.06908 -0.046006 1.61392
-5.07845 -0.029251 1.61784
-5.05946 -0.011479 1.61177
-5.07853 0.004432 1.61784
-5.05018 0.021155 1.60785
-5.06944 0.036277 1.61303
-5.06902 0.052199 1.61392
-5.06883 0.068125 1.61392
-2.09592 0.034389 0.667775
-1.88624 0.036217 0.600998
-1.87669 0.041933 0.597635
-1.86691 0.047908 0.594927
-1.87627 0.054376 0.597962
-2.10475 0.067983 0.670443
-5.03726 0.178545 1.6057
-5.05568 0.195987 1.61177
-5.05528 0.212762 1.61088
-5.04483 0.227321 1.60873
-5.08249 0.244129 1.61999
-5.05351 0.256883 1.61
-5.04261 0.272216 1.60873
-5.04201 0.288071 1.60785
-5.10415 -0.299665 1.64158
-5.09574 -0.284896 1.63764
-5.10612 -0.269388 1.64069
-5.06886 -0.252342 1.62847
-5.08779 -0.237265 1.63725
-5.06949 -0.220453 1.63113
-5.09873 -0.204786 1.64031
-5.08987 -0.187527 1.63725
-5.08095 -0.170327 1.63419
-5.08148 -0.153478 1.63419
-5.06262 -0.136989 1.62895
-5.07309 -0.122212 1.63024
-5.0642 -0.106965 1.6263
-5.07428 -0.093001 1.62847
-5.08377 -0.078087 1.63241
-5.07419 -0.061997 1.63024
-5.05533 -0.044117 1.62412
-5.07477 -0.028344 1.62936
-5.05523 -0.011469 1.62501
-5.06447 0.005303 1.62895
-5.06443 0.022099 1.62895
-5.07414 0.038082 1.63113
-5.06504 0.053926 1.6263
-5.05563 0.067948 1.62236
-2.11344 0.034676 0.678644
-1.90389 0.037221 0.611391
-1.88452 0.042766 0.605935
-1.87476 0.04811 0.603202
-1.89373 0.054882 0.608995
-2.07408 0.067355 0.667865
-5.05172 0.180823 1.62589
-5.06064 0.197064 1.62895
-5.05077 0.212572 1.62501
-5.05991 0.228 1.62718
-5.04966 0.243436 1.62412
-5.03912 0.257915 1.62195
-5.04874 0.272547 1.62236
-5.028 0.287271 1.61889
-5.09021 -0.296173 1.65277
-5.10143 -0.281642 1.65318
-5.11174 -0.267001 1.65626
-5.09351 -0.250896 1.6501
-5.09427 -0.234894 1.6501
-5.10366 -0.218368 1.65586
-5.07581 -0.201203 1.64661
-5.07648 -0.183485 1.64661
-5.09576 -0.168153 1.65366
-5.08706 -0.150981 1.64969
-5.05927 -0.134248 1.63956
-5.07869 -0.118799 1.64572
-5.07033 -0.105324 1.63998
-5.07985 -0.090442 1.64394
-5.07059 -0.074344 1.64087
-5.0708 -0.058413 1.64087
-5.05108 -0.042317 1.63735
-5.08924 -0.024872 1.64969
-5.06076 -0.007949 1.64044
-5.06076 0.007949 1.64044
-5.06993 0.024778 1.64441
-5.06032 0.040628 1.64132
-5.06997 0.055749 1.64352
-5.06113 0.070672 1.63779
-2.09285 0.0358 0.677281
-1.90238 0.037856 0.616042
-1.89274 0.043613 0.612962
-1.87346 0.049385 0.607128
-1.89209 0.056156 0.613953
-2.07253 0.068391 0.672571
-5.04767 0.182444 1.63824
-5.0375 0.199685 1.63515
-5.05614 0.216334 1.64044
-5.0463 0.230034 1.63647
-5.05534 0.246363 1.63867
-5.05492 0.260493 1.63779
-5.04462 0.274973 1.63471
-5.04373 0.290819 1.63471
-5.11497 -0.296718 1.67365
-5.0968 -0.281386 1.66744
-5.0887 -0.265798 1.66256
-5.08976 -0.250711 1.66167
-5.09947 -0.234242 1.66655
-5.09098 -0.217825 1.66256
-5.0908 -0.200908 1.66523
-5.09115 -0.184016 1.66612
-5.09202 -0.16714 1.66523
-5.07326 -0.149685 1.6599
-5.08318 -0.134882 1.66301
-5.07466 -0.118705 1.65813
-5.08449 -0.103842 1.66123
-5.07615 -0.087718 1.65547
-5.06686 -0.07429 1.65237
-5.06678 -0.058367 1.65325
-5.06694 -0.041565 1.65325
-5.06648 -0.023876 1.65502
-5.07575 -0.007972 1.65901
-5.06624 0.008842 1.6559
-5.0754 0.02569 1.6599
-5.05628 0.041478 1.65368
-5.05643 0.056482 1.6528
-5.05654 0.070608 1.65192
-2.14822 0.036747 0.701004
-1.90108 0.038163 0.620026
-1.87233 0.04347 0.611052
-1.86268 0.049101 0.60795
-1.88119 0.055833 0.615139
-2.04237 0.067752 0.668311
-5.05338 0.184417 1.6528
-5.05249 0.200279 1.65368
-5.06104 0.216544 1.65767
-5.06095 0.231587 1.6559
-5.04154 0.24569 1.64881
-5.05057 0.261155 1.65103
-5.04091 0.274771 1.64617
-5.03973 0.290588 1.64705
-5.09143 -0.293569 1.68169
-5.08338 -0.277976 1.67678
-5.09367 -0.263383 1.67991
-5.09472 -0.248282 1.67902
-5.10555 -0.232735 1.68036
-5.07723 -0.214574 1.67277
-5.0969 -0.198476 1.67902
-5.09721 -0.182453 1.67991
-5.07851 -0.164922 1.67454
-5.06924 -0.147796 1.6723
-5.06018 -0.131621 1.66916
-5.07952 -0.117932 1.67543
-5.08014 -0.102867 1.67454
-5.08994 -0.087067 1.67767
-5.06255 -0.071575 1.66563
-5.07284 -0.05578 1.66698
-5.0629 -0.039765 1.66563
-5.07164 -0.02213 1.67141
-5.07139 -0.004425 1.6723
-5.08029 0.011526 1.6772
-5.07132 0.026555 1.6723
-5.05222 0.043208 1.66603
-5.05206 0.058197 1.66603
-5.05215 0.074074 1.66515
-2.18423 0.038126 0.719514
-1.89922 0.038789 0.625665
-1.87082 0.044088 0.615626
-1.87045 0.050286 0.61628
-1.87976 0.056775 0.619408
-2.04082 0.068414 0.672946
-5.03948 0.185671 1.6629
-5.05753 0.203131 1.67005
-5.06664 0.219441 1.6723
-5.04704 0.232716 1.66603
-5.04662 0.247703 1.66515
-5.05563 0.263186 1.6674
-5.05507 0.279083 1.66651
-5.05451 0.294096 1.66563
-5.07813 -0.292802 1.6901
-5.10711 -0.279273 1.70046
-5.0893 -0.262267 1.69326
-5.09988 -0.246749 1.69552
-5.08166 -0.229869 1.68922
-5.07347 -0.213527 1.68429
-5.09282 -0.197427 1.69148
-5.08337 -0.180181 1.6901
-5.10262 -0.163922 1.6973
-5.09333 -0.147608 1.69504
-5.08428 -0.13136 1.69188
-5.07545 -0.116065 1.68784
-5.07578 -0.101006 1.68784
-5.06686 -0.085788 1.6838
-5.07658 -0.070888 1.68695
-5.05809 -0.054735 1.67976
-5.08731 -0.038181 1.68744
-5.06813 -0.020346 1.68203
-5.05809 -0.004414 1.68064
-5.06757 0.012382 1.6838
-5.06692 0.0283 1.68557
-5.06651 0.044215 1.68645
-5.07614 0.05936 1.68872
-5.06645 0.074284 1.68557
-5.02855 0.088651 1.67206
-1.90705 0.039614 0.633789
-1.86897 0.044697 0.621176
-1.86893 0.050571 0.62085
-1.88783 0.057349 0.626823
-2.01058 0.068103 0.668825
-5.00693 0.185347 1.66575
-5.06292 0.203348 1.68557
-5.05248 0.218828 1.68329
-5.05235 0.234728 1.68153
-5.04216 0.249249 1.67837
-5.05126 0.262958 1.68064
-5.03175 0.277795 1.67346
-5.03114 0.293617 1.67258
-5.10165 -0.291479 1.71473
-5.09392 -0.275877 1.70888
-5.07578 -0.259791 1.70253
-5.10524 -0.246115 1.71116
-5.10628 -0.23009 1.71027
-5.0783 -0.211955 1.70164
-5.0695 -0.194751 1.69846
-5.08936 -0.178613 1.70393
-5.09881 -0.162018 1.70888
-5.11825 -0.146543 1.71523
-5.08995 -0.129729 1.70659
-5.0995 -0.114834 1.71066
-5.08143 -0.100231 1.70253
-5.07224 -0.084108 1.69935
-5.07248 -0.068174 1.69935
-5.08245 -0.052337 1.70164
-5.0731 -0.036303 1.69846
-5.08239 -0.018627 1.70253
-5.05427 -0.001764 1.69212
-5.0821 0.014191 1.70341
-5.06307 0.030046 1.69706
-5.08132 0.046118 1.70519
-5.06219 0.061851 1.69883
-5.06258 0.076878 1.69706
-5.0342 0.090508 1.68664
-1.9434 0.041048 0.651153
-1.87691 0.045543 0.628919
-1.85779 0.051243 0.622566
-1.87668 0.057993 0.628591
-1.9902 0.068108 0.666687
-5.01255 0.187307 1.68029
-5.0498 0.205469 1.693
-5.04854 0.221308 1.69476
-5.03809 0.235828 1.69246
-5.038 0.249925 1.6907
-5.02802 0.265268 1.68664
-5.03633 0.281575 1.6907
-5.04523 0.29709 1.693
-5.08865 -0.289845 1.72223
-5.09894 -0.275257 1.72543
-5.10004 -0.26014 1.72454
-5.10083 -0.244118 1.72454
-5.09215 -0.226781 1.72134
-5.10256 -0.212076 1.72365
-5.09351 -0.193893 1.72134
-5.08495 -0.176681 1.71725
-5.09498 -0.160116 1.72045
-5.06675 -0.143298 1.71174
-5.07662 -0.128502 1.71494
-5.08617 -0.112757 1.71903
-5.09595 -0.097846 1.72223
-5.08734 -0.083471 1.71725
-5.06862 -0.067237 1.71086
-5.09723 -0.0516 1.72045
-5.05948 -0.03444 1.70766
-5.06874 -0.017692 1.71174
-5.07825 -0.000886 1.71494
-5.05009 0.015864 1.70446
-5.0592 0.031789 1.70854
-5.05907 0.047682 1.70854
-5.04943 0.062576 1.70534
-5.05842 0.076815 1.70942
-5.04898 0.092537 1.70534
-1.98927 0.042712 0.671551
-1.88482 0.046393 0.636704
-1.85637 0.051528 0.626781
-1.86553 0.058301 0.630305
-1.93161 0.066778 0.652701
-2.18715 0.082493 0.738706
-5.05508 0.206567 1.70854
-5.05411 0.222436 1.70942
-5.07231 0.239204 1.71583
-5.04319 0.252829 1.70622
-5.03364 0.265565 1.70126
-5.03279 0.281376 1.70126
-5.04104 0.297726 1.70534
-5.10343 -0.2889 1.74113
-5.09512 -0.273267 1.73701
-5.0861 -0.25854 1.73468
-5.08689 -0.242561 1.73468
-5.08767 -0.225692 1.73468
-5.07863 -0.208417 1.73234
-5.08875 -0.191933 1.73557
-5.07987 -0.175617 1.73234
-5.07096 -0.158476 1.72911
-5.07176 -0.141668 1.72823
-5.08192 -0.126862 1.73057
-5.09144 -0.111985 1.73468
-5.06336 -0.096336 1.725
-5.07278 -0.081461 1.72911
-5.08248 -0.065647 1.73234
-5.0735 -0.049589 1.72823
-5.0544 -0.033523 1.72266
-5.08288 -0.015967 1.73234
-5.07344 0.000885 1.72911
-5.0731 0.017708 1.73
-5.06417 0.032704 1.725
-5.05457 0.048521 1.72178
-5.03517 0.064157 1.71621
-5.06365 0.079546 1.725
-5.05364 0.093505 1.72266
-2.02511 0.043835 0.690356
-1.89272 0.046918 0.644531
-1.87351 0.05266 0.638413
-1.88268 0.059166 0.641966
-1.90128 0.066062 0.64875
-2.12804 0.081007 0.726213
-5.0691 0.209799 1.72911
-5.04038 0.223595 1.71856
-5.0394 0.238534 1.71944
-5.03901 0.252619 1.71856
-5.04735 0.268938 1.72266
-5.02763 0.282848 1.71621
-5.03646 0.29922 1.71856
-5.09962 -0.286006 1.75272
-5.08126 -0.269855 1.74712
-5.08269 -0.25392 1.74534
-5.08281 -0.23881 1.74712
-5.10282 -0.221903 1.75272
-5.0751 -0.205611 1.74298
-5.07545 -0.18877 1.74387
-5.07574 -0.171927 1.74476
-5.0955 -0.155682 1.75036
-5.06757 -0.139781 1.74062
-5.09696 -0.124567 1.74859
-5.0784 -0.109038 1.7421
-5.08787 -0.09325 1.74623
-5.0695 -0.078753 1.73885
-5.06942 -0.062824 1.73974
-5.06929 -0.046008 1.74062
-5.05996 -0.029144 1.73737
-5.05972 -0.013245 1.73826
-5.06919 0.003539 1.74151
-5.06916 0.020348 1.74151
-5.05991 0.036209 1.73737
-5.06008 0.052107 1.73649
-5.0599 0.067122 1.73649
-5.07829 0.082436 1.74387
-5.03136 0.095728 1.72588
-2.04242 0.045636 0.701445
-1.88154 0.047627 0.646238
-1.88148 0.054198 0.64591
-1.88106 0.060429 0.646567
-1.89964 0.067332 0.653397
-2.12635 0.082058 0.731043
-5.05534 0.210997 1.73826
-5.02691 0.225634 1.72675
-5.04542 0.241466 1.73236
-5.04437 0.256419 1.73325
-5.05304 0.271894 1.73649
-5.04241 0.287211 1.73413
-5.08595 -0.284348 1.76193
-5.09682 -0.26979 1.76341
-5.107 -0.256027 1.76668
-5.09833 -0.23954 1.76341
-5.08935 -0.222207 1.76104
-5.08031 -0.204934 1.75866
-5.09068 -0.189336 1.76104
-5.08153 -0.172122 1.75866
-5.09123 -0.154662 1.76282
-5.08225 -0.138408 1.75954
-5.09239 -0.123566 1.76193
-5.08359 -0.108262 1.75777
-5.09365 -0.093356 1.76015
-5.075 -0.077953 1.75362
-5.07522 -0.06201 1.75362
-5.08423 -0.046144 1.75866
-5.09288 -0.029334 1.76459
-5.07436 -0.012398 1.75716
-5.06462 0.00442 1.75477
-5.08348 0.020405 1.76132
-5.07425 0.036311 1.75716
-5.06496 0.052157 1.753
-5.05533 0.067944 1.74973
-5.05603 0.082074 1.74709
-5.06491 0.09725 1.75124
-2.09764 0.04687 0.725325
-1.89908 0.048402 0.656713
-1.87966 0.054474 0.651164
-1.87971 0.060386 0.650507
-1.89816 0.06728 0.657708
-2.05832 0.079792 0.713695
-5.06018 0.212084 1.75477
-5.04126 0.226278 1.74646
-5.04087 0.241248 1.74558
-5.05962 0.257194 1.75035
-5.05853 0.27219 1.75124
-5.0199 0.285929 1.73817
-5.0904 -0.296184 1.77766
-5.1009 -0.283398 1.78006
-5.0926 -0.267784 1.77588
-5.08425 -0.252218 1.7717
-5.09414 -0.23667 1.77588
-5.09486 -0.220663 1.77588
-5.07611 -0.202103 1.77108
-5.07613 -0.185247 1.77285
-5.077 -0.169308 1.77196
-5.06809 -0.152189 1.76867
-5.08711 -0.136764 1.77614
-5.08781 -0.121678 1.77526
-5.06988 -0.1062 1.7669
-5.07992 -0.09133 1.7693
-5.08049 -0.075376 1.76842
-5.08009 -0.059409 1.77019
-5.08026 -0.042561 1.77019
-5.06117 -0.026501 1.76449
-5.0795 -0.009751 1.77285
-5.07981 0.007092 1.77196
-5.06057 0.023849 1.76626
-5.07935 0.039894 1.77285
-5.06977 0.054862 1.76955
-5.0702 0.069914 1.76778
-5.03251 0.084328 1.75374
-5.06118 0.09983 1.76184
-2.09584 0.047927 0.73045
-1.87844 0.048861 0.655101
-1.87816 0.055087 0.655429
-1.88729 0.061618 0.659052
-1.88707 0.067877 0.659052
-2.04722 0.080435 0.715071
-5.0369 0.21375 1.76055
-5.05572 0.22958 1.76537
-5.04559 0.244122 1.76208
-5.05458 0.259591 1.76449
-5.0544 0.274622 1.76273
-5.04378 0.289939 1.76032
-5.08569 -0.2968 1.791
-5.08686 -0.281728 1.79011
-5.07914 -0.267076 1.78414
-5.08933 -0.252471 1.78745
-5.09984 -0.236934 1.78987
-5.08143 -0.219193 1.78414
-5.08154 -0.201431 1.78591
-5.08184 -0.185455 1.7868
-5.0818 -0.16858 1.78857
-5.09145 -0.152001 1.79278
-5.08309 -0.135768 1.78769
-5.09288 -0.121799 1.791
-5.06524 -0.106102 1.78017
-5.08472 -0.090529 1.78591
-5.07585 -0.075307 1.78171
-5.06693 -0.059255 1.77752
-5.07623 -0.042527 1.78171
-5.06659 -0.02653 1.77928
-5.06634 -0.008842 1.78017
-5.07515 0.007972 1.78526
-5.0751 0.023917 1.78526
-5.06588 0.039788 1.78105
-5.04657 0.05461 1.7753
-5.06523 0.070729 1.78194
-5.05652 0.08473 1.77597
-5.04681 0.099546 1.77266
-4.98075 0.113899 1.74859
-1.89604 0.049649 0.665327
-1.86746 0.054773 0.655723
-1.86716 0.060961 0.656049
-1.87615 0.067484 0.660018
-1.99834 0.078515 0.703483
-4.98608 0.211593 1.75452
-5.0514 0.229383 1.77774
-5.06043 0.24484 1.78017
-5.06937 0.261237 1.7826
-5.05009 0.274387 1.77509
-5.05888 0.291692 1.77752
-5.09082 -0.295317 1.80679
-5.11081 -0.281265 1.81257
-5.08338 -0.26463 1.80256
-5.08481 -0.248688 1.80078
-5.07611 -0.233169 1.79744
-5.09601 -0.217149 1.80323
-5.0779 -0.198624 1.79656
-5.07821 -0.181773 1.79744
-5.06934 -0.16551 1.79411
-5.06952 -0.149575 1.795
-5.06934 -0.13363 1.79677
-5.06093 -0.1175 1.79166
-5.07037 -0.102669 1.79588
-5.06153 -0.088349 1.79166
-5.0712 -0.072583 1.795
-5.06229 -0.056548 1.79078
-5.06245 -0.039761 1.79078
-5.07198 -0.023902 1.79411
-5.07172 -0.007081 1.795
-5.05286 0.0097 1.78832
-5.07103 0.026553 1.79677
-5.06087 0.042399 1.79519
-5.07046 0.057524 1.79765
-5.06115 0.072439 1.79343
-5.07098 0.086743 1.795
-5.06189 0.102497 1.78989
-5.0518 0.11817 1.78744
-1.89428 0.050265 0.67029
-1.88467 0.056594 0.666956
-1.86551 0.062211 0.660612
-1.88403 0.068755 0.667614
-1.93077 0.076873 0.684641
-4.99078 0.21441 1.77092
-5.04692 0.231828 1.79009
-5.04653 0.246816 1.7892
-5.05487 0.262262 1.79343
-5.0547 0.277292 1.79166
-5.05411 0.293188 1.79078
-5.08676 -0.294191 1.81835
-5.07852 -0.278599 1.8141
-5.08869 -0.264907 1.81746
-5.0989 -0.249378 1.82082
-5.09057 -0.232943 1.81657
-5.09131 -0.216059 1.81657
-5.08263 -0.19792 1.81321
-5.09264 -0.18229 1.81657
-5.09287 -0.166278 1.81746
-5.07456 -0.148837 1.81074
-5.075 -0.132893 1.81074
-5.08445 -0.118934 1.81499
-5.0757 -0.102777 1.81074
-5.07598 -0.087715 1.81074
-5.07591 -0.07265 1.81163
-5.06732 -0.056604 1.8065
-5.06748 -0.039801 1.8065
-5.08611 -0.023081 1.8141
-5.06764 -0.006191 1.8065
-5.06731 0.010612 1.80738
-5.07636 0.026581 1.81163
-5.06683 0.042449 1.80827
-5.05662 0.05825 1.80667
-5.03791 0.072986 1.79906
-5.04773 0.087227 1.80066
-5.06597 0.10258 1.80827
-5.03769 0.11784 1.7973
-2.01491 0.053818 0.718922
-1.8735 0.056259 0.66853
-1.86401 0.062161 0.664845
-1.84486 0.067326 0.658452
-1.88203 0.075261 0.672547
-2.1361 0.09177 0.762595
-5.06167 0.232505 1.80827
-5.04214 0.246602 1.80154
-5.03261 0.261107 1.79642
-5.05026 0.277933 1.80402
-5.03092 0.291842 1.79642
-5.10157 -0.292368 1.83667
-5.07386 -0.276567 1.82741
-5.08406 -0.261997 1.83079
-5.08517 -0.246037 1.82991
-5.1044 -0.230898 1.83756
-5.0957 -0.214463 1.83418
-5.08705 -0.195425 1.83079
-5.09704 -0.179773 1.83418
-5.08853 -0.16258 1.82991
-5.07929 -0.146314 1.82741
-5.07972 -0.130355 1.82741
-5.0804 -0.115291 1.82652
-5.08041 -0.100211 1.82741
-5.06217 -0.085709 1.81976
-5.08155 -0.07007 1.82564
-5.10025 -0.053411 1.83329
-5.06245 -0.036227 1.82064
-5.04403 -0.020249 1.81299
-5.07198 -0.003541 1.82403
-5.07228 0.013279 1.82314
-5.05307 0.029987 1.81726
-5.07177 0.046031 1.82403
-5.06254 0.060085 1.81976
-5.07143 0.075242 1.82403
-5.07086 0.090282 1.82491
-5.06146 0.106023 1.82064
-5.04231 0.12059 1.81387
-2.0599 0.056098 0.741476
-1.8717 0.057513 0.673435
-1.88079 0.064035 0.677147
-1.86189 0.069249 0.670051
-1.88059 0.075861 0.67649
-2.09632 0.09116 0.755019
-5.04768 0.235394 1.81726
-5.06548 0.250401 1.82491
-5.04592 0.264447 1.81814
-5.0551 0.280854 1.81976
-5.05387 0.296714 1.82064
-5.07836 -0.290148 1.84234
-5.08863 -0.2747 1.84575
-5.07999 -0.260007 1.84234
-5.08985 -0.244483 1.84664
-5.09063 -0.227604 1.84664
-5.08193 -0.211218 1.84323
-5.092 -0.194725 1.84664
-5.10265 -0.178188 1.84826
-5.09317 -0.160949 1.84664
-5.09398 -0.144958 1.84575
-5.06621 -0.128239 1.83553
-5.07565 -0.11341 1.83982
-5.06686 -0.099057 1.83553
-5.09534 -0.084491 1.84575
-5.07646 -0.068227 1.83982
-5.08605 -0.052374 1.84323
-5.08587 -0.035507 1.84412
-5.07656 -0.017719 1.84071
-5.05843 -0.001766 1.83213
-5.06717 0.015034 1.8373
-5.06742 0.030956 1.83641
-5.05821 0.046791 1.83213
-5.04833 0.061681 1.8296
-5.05785 0.076806 1.83213
-5.0576 0.091812 1.83213
-5.04725 0.107488 1.83048
-5.0754 0.12404 1.83982
-2.07697 0.057652 0.752964
-1.87932 0.058075 0.681744
-1.8602 0.063984 0.675251
-1.8507 0.069803 0.671518
-1.87865 0.076768 0.681744
-2.04773 0.089764 0.742385
-5.02436 0.236064 1.82279
-5.05217 0.251511 1.83213
-5.05109 0.266485 1.83301
-5.0499 0.282333 1.83389
-5.04936 0.297333 1.83301
-5.10213 -0.288826 1.86505
-5.08416 -0.273569 1.85819
-5.10371 -0.259435 1.86505
-5.08574 -0.242506 1.85819
-5.07644 -0.226082 1.85654
-5.08655 -0.209632 1.85997
-5.08725 -0.191876 1.85997
-5.10628 -0.176529 1.86773
-5.09744 -0.159303 1.86429
-5.07947 -0.142771 1.85654
-5.0896 -0.127053 1.85908
-5.0715 -0.111547 1.85134
-5.06242 -0.096318 1.84791
-5.09084 -0.082639 1.85819
-5.0817 -0.065637 1.85476
-5.09062 -0.049756 1.85997
-5.08136 -0.033702 1.85654
-5.08145 -0.015963 1.85654
-5.06204 0.000883 1.85144
-5.06201 0.017669 1.85144
-5.05319 0.032633 1.84624
-5.04367 0.048417 1.84281
-5.06292 0.064511 1.84791
-5.06272 0.078648 1.84791
-5.06214 0.093662 1.84879
-5.05277 0.108488 1.84448
-5.05174 0.125226 1.84624
-2.11253 0.059378 0.772128
-1.87762 0.059007 0.686336
-1.86791 0.064902 0.68323
-1.85831 0.070415 0.679797
-1.87695 0.077355 0.686336
-1.99869 0.088663 0.730948
-5.0389 0.23851 1.84105
-5.05698 0.25352 1.84791
-5.0465 0.26801 1.84536
-5.03658 0.283352 1.84105
-5.0541 0.300268 1.84879
-5.08797 -0.286243 1.87497
-5.1082 -0.27218 1.88009
-5.09023 -0.256078 1.87319
-5.10977 -0.24097 1.88009
-5.08237 -0.223679 1.86974
-5.0821 -0.206783 1.8724
-5.09181 -0.190268 1.87675
-5.08336 -0.173073 1.8724
-5.09293 -0.157383 1.87675
-5.07464 -0.140862 1.86983
-5.07506 -0.124918 1.86983
-5.06602 -0.109657 1.86638
-5.0864 -0.094999 1.86974
-5.09604 -0.080055 1.87319
-5.0584 -0.06357 1.86027
-5.07735 -0.047854 1.86718
-5.07683 -0.031013 1.86895
-5.05781 -0.014123 1.86292
-5.06754 0.002653 1.86549
-5.06685 0.019454 1.86726
-5.048 0.035243 1.86035
-5.05757 0.051198 1.86292
-5.07649 0.066456 1.86895
-5.0491 0.080199 1.85594
-5.0676 0.096417 1.86284
-5.05756 0.112123 1.86027
-5.06624 0.12824 1.86461
-5.02796 0.14308 1.85168
-1.88506 0.059899 0.695037
-1.87546 0.066148 0.691579
-1.86587 0.071679 0.688121
-1.87501 0.07793 0.691579
-1.94063 0.086427 0.715106
-5.00554 0.238682 1.84477
-5.04263 0.255448 1.8577
-5.05191 0.270065 1.85939
-5.05072 0.285916 1.86027
-5.04979 0.301783 1.86027
-5.08343 -0.285098 1.88742
-5.09362 -0.270512 1.89089
-5.09506 -0.255429 1.88911
-5.09584 -0.239422 1.88911
-5.08686 -0.222988 1.88653
-5.09662 -0.206483 1.89089
-5.0782 -0.188873 1.88483
-5.08751 -0.172325 1.89008
-5.06932 -0.154882 1.88312
-5.07915 -0.139211 1.8866
-5.07954 -0.124141 1.8866
-5.08056 -0.108198 1.88483
-5.0718 -0.093841 1.88046
-5.07238 -0.078798 1.87958
-5.07262 -0.061978 1.87958
-5.08183 -0.046122 1.88394
-5.06287 -0.030045 1.87787
-5.09075 -0.012438 1.88919
-5.05293 0.004409 1.87616
-5.07197 0.020359 1.88223
-5.07221 0.036297 1.88135
-5.06204 0.052127 1.87964
-5.06252 0.067157 1.87787
-5.0623 0.082176 1.87787
-5.05298 0.097021 1.87351
-5.05333 0.112029 1.87175
-5.062 0.128132 1.8761
-5.05149 0.145514 1.87439
-1.98666 0.063822 0.737238
-1.87375 0.066415 0.696162
-1.8829 0.072663 0.699643
-1.87342 0.078192 0.695835
-1.89177 0.084913 0.703124
-2.13497 0.102177 0.793625
-5.03771 0.25608 1.87092
-5.05598 0.272052 1.87699
-5.06511 0.288504 1.87869
-5.09757 -0.284998 1.90685
-5.09872 -0.269891 1.90596
-5.09048 -0.254309 1.90157
-5.08193 -0.236991 1.89807
-5.08331 -0.221055 1.8963
-5.074 -0.203792 1.89458
-5.08368 -0.187299 1.89896
-5.08394 -0.170428 1.89985
-5.07445 -0.153266 1.89812
-5.06554 -0.137068 1.89462
-5.07562 -0.122273 1.89724
-5.07596 -0.107213 1.89724
-5.0769 -0.093049 1.89547
-5.0775 -0.077105 1.89458
-5.08708 -0.062154 1.89807
-5.06885 -0.04512 1.8902
-5.06864 -0.02831 1.89108
-5.08711 -0.011542 1.89896
-5.07709 0.005316 1.89724
-5.05798 0.022071 1.89112
-5.09535 0.038241 1.90513
-5.06778 0.053071 1.89285
-5.05823 0.067983 1.88935
-5.04864 0.082836 1.88586
-5.0768 0.098365 1.89547
-5.06741 0.114996 1.89108
-5.06736 0.130923 1.8902
-5.04786 0.146291 1.88409
-2.02255 0.065328 0.755388
-1.87239 0.067021 0.699761
-1.86269 0.072534 0.696587
-1.87169 0.078774 0.700415
-1.87143 0.084654 0.700415
-2.04893 0.098776 0.766954
-5.04277 0.257219 1.88586
-5.03295 0.271695 1.88148
-5.04176 0.288057 1.88409
-5.08389 -0.284233 1.91491
-5.10312 -0.26923 1.92284
-5.08553 -0.253172 1.91491
-5.09594 -0.238536 1.91754
-5.09637 -0.221622 1.91843
-5.08806 -0.204357 1.91402
-5.08871 -0.187485 1.91402
-5.07959 -0.171169 1.91139
-5.08918 -0.153711 1.9158
-5.07994 -0.137458 1.91316
-5.07999 -0.122378 1.91405
-5.08067 -0.107313 1.91316
-5.08128 -0.093129 1.91227
-5.08187 -0.078058 1.91139
-5.07308 -0.061098 1.90698
-5.07324 -0.045159 1.90698
-5.08272 -0.028388 1.9105
-5.06407 -0.011489 1.90346
-5.09149 0.005332 1.9158
-5.06337 0.022094 1.90523
-5.06294 0.037998 1.90612
-5.07183 0.053113 1.91052
-5.07232 0.068172 1.90875
-5.0811 0.084255 1.91316
-5.06247 0.098087 1.90523
-5.04309 0.113563 1.89907
-5.06173 0.130777 1.90523
-5.07131 0.14697 1.90698
-2.12374 0.068967 0.798681
-1.88939 0.067299 0.71138
-1.87046 0.072837 0.704337
-1.85139 0.07792 0.697617
-1.86959 0.084571 0.705317
-2.00045 0.096438 0.75399
-5.0288 0.256507 1.89467
-5.04671 0.272437 1.90171
-5.04649 0.288327 1.89994
-5.08788 -0.296037 1.93089
-5.10707 -0.281953 1.93887
-5.08955 -0.265842 1.93089
-5.09966 -0.251199 1.93443
-5.10012 -0.234272 1.93532
-5.11051 -0.218661 1.93797
-5.07383 -0.200238 1.9238
-5.07447 -0.183413 1.9238
-5.08473 -0.166901 1.92646
-5.07555 -0.150639 1.9238
-5.08535 -0.13494 1.92734
-5.09476 -0.119175 1.93178
-5.07639 -0.103677 1.92469
-5.06765 -0.08934 1.92026
-5.0866 -0.073691 1.92734
-5.0681 -0.058382 1.92026
-5.0686 -0.041579 1.91937
-5.07806 -0.023931 1.92291
-5.05908 -0.007063 1.91671
-5.07811 0.008863 1.92291
-5.06803 0.025653 1.92114
-5.05858 0.041497 1.9176
-5.04908 0.0564 1.91405
-5.0676 0.070762 1.92114
-5.05801 0.086521 1.9176
-5.06708 0.101718 1.92114
-5.05703 0.118293 1.91848
-5.05697 0.134187 1.9176
-5.03816 0.14953 1.90963
-4.93447 0.163693 1.87152
-1.86903 0.068208 0.708582
-1.86868 0.074074 0.708908
-1.85897 0.079539 0.705689
-1.86819 0.085488 0.708908
-1.97973 0.096825 0.752135
-5.03299 0.260246 1.91139
-5.02357 0.273826 1.90609
-5.05069 0.29122 1.91671
-5.0922 -0.295397 1.94779
-5.09334 -0.281195 1.9469
-5.09352 -0.265158 1.94868
-5.07567 -0.248241 1.94154
-5.09572 -0.23407 1.9469
-5.09609 -0.218044 1.94779
-5.10616 -0.200622 1.95136
-5.07848 -0.181783 1.94154
-5.09801 -0.167337 1.94779
-5.08954 -0.150165 1.94333
-5.08965 -0.134165 1.94422
-5.08068 -0.118846 1.94066
-5.07169 -0.102696 1.93709
-5.09064 -0.088857 1.94422
-5.06252 -0.073342 1.9344
-5.06341 -0.05656 1.93264
-5.08191 -0.040801 1.94066
-5.05365 -0.023816 1.93084
-5.07273 -0.007082 1.93709
-5.08206 0.009756 1.94066
-5.06366 0.026514 1.93264
-5.06356 0.041537 1.93264
-5.06273 0.057436 1.9344
-5.07221 0.072597 1.93709
-5.04363 0.086275 1.92727
-5.06201 0.1025 1.9344
-5.06234 0.118417 1.93264
-5.07061 0.134549 1.93797
-5.05112 0.150797 1.93172
-5.04157 0.168126 1.92727
-1.96039 0.071542 0.749492
-1.8764 0.07438 0.716716
-1.87616 0.080274 0.716716
-1.85712 0.084981 0.709909
-1.90338 0.09309 0.728078
-2.1458 0.110955 0.820497
-5.06482 0.276961 1.93797
-5.03629 0.291272 1.92639
-5.11593 -0.29319 1.97012
-5.09809 -0.277888 1.96295
-5.07093 -0.26132 1.95218
-5.09969 -0.24674 1.96295
-5.09078 -0.230281 1.96025
-5.08287 -0.213035 1.95488
-5.08252 -0.196139 1.95755
-5.1018 -0.179941 1.96473
-5.08403 -0.163325 1.95666
-5.08454 -0.146466 1.95666
-5.07562 -0.131136 1.95307
-5.08602 -0.115418 1.95488
-5.086 -0.100321 1.95577
-5.08628 -0.085229 1.95577
-5.08617 -0.070134 1.95666
-5.07669 -0.05405 1.95395
-5.08651 -0.037287 1.95666
-5.0676 -0.019459 1.95036
-5.0673 -0.002653 1.95124
-5.08629 0.013315 1.95755
-5.04889 0.029962 1.94318
-5.07676 0.046076 1.95395
-5.05862 0.060922 1.945
-5.06742 0.075183 1.94948
-5.05785 0.090051 1.94589
-5.06687 0.106137 1.94948
-5.06617 0.122045 1.95036
-5.05677 0.137714 1.94589
-5.04659 0.155069 1.94318
-5.02672 0.171144 1.93775
-1.99568 0.074225 0.768999
-1.86501 0.075558 0.718365
-1.8649 0.081097 0.718039
-1.85545 0.086203 0.714125
-1.87369 0.09295 0.721629
-2.10658 0.110401 0.811016
-5.03261 0.278723 1.93783
-5.04035 0.295037 1.94318
-5.10145 -0.292361 1.97992
-5.09402 -0.276774 1.97364
-5.09478 -0.262549 1.97364
-5.08592 -0.246073 1.97092
-5.09598 -0.230516 1.97453
-5.105 -0.213962 1.98081
-5.08708 -0.195426 1.97358
-5.07869 -0.179126 1.96908
-5.07857 -0.162262 1.97085
-5.08872 -0.146586 1.97358
-5.06154 -0.129888 1.96185
-5.08089 -0.115302 1.96819
-5.06325 -0.099873 1.9592
-5.08183 -0.085154 1.96731
-5.06342 -0.068936 1.96009
-5.07294 -0.052239 1.9637
-5.05375 -0.036165 1.95824
-5.09114 -0.01955 1.97269
-5.07253 -0.002656 1.96547
-5.05318 0.01411 1.96
-5.08142 0.030155 1.96997
-5.06231 0.045945 1.96362
-5.05351 0.06086 1.95824
-5.07264 0.076146 1.9637
-5.06307 0.091027 1.96009
-5.0721 0.106246 1.9637
-5.05276 0.121722 1.95736
-5.04232 0.138202 1.95551
-5.05078 0.15608 1.96
-5.04163 0.171652 1.95463
-2.04983 0.076239 0.795216
-1.86325 0.075487 0.722924
-1.86312 0.081345 0.722598
-1.85356 0.086439 0.718985
-1.86274 0.092406 0.722273
-2.04886 0.107376 0.794142
-5.04678 0.280392 1.95648
-5.02725 0.295151 1.94926
-5.10606 -0.289943 1.99604
-5.08859 -0.274698 1.98787
-5.09013 -0.258744 1.98609
-5.08161 -0.242309 1.98246
-5.08234 -0.226345 1.98246
-5.09234 -0.210761 1.98609
-5.10131 -0.193298 1.9924
-5.07365 -0.175402 1.98238
-5.06555 -0.159191 1.97697
-5.07468 -0.142636 1.98238
-5.08439 -0.127811 1.98602
-5.06681 -0.112328 1.97697
-5.08577 -0.096763 1.98424
-5.07774 -0.082427 1.97795
-5.07763 -0.066471 1.97883
-5.0961 -0.050699 1.98698
-5.06794 -0.033613 1.97697
-5.07734 -0.016836 1.9806
-5.06736 0.000884 1.97874
-5.06734 0.016803 1.97874
-5.05794 0.032664 1.9751
-5.06713 0.048642 1.97874
-5.03971 0.063335 1.96607
-5.06746 0.077837 1.97697
-5.04926 0.092542 1.96794
-5.05826 0.108606 1.97157
-5.05755 0.124487 1.97245
-5.04745 0.140989 1.9697
-5.04662 0.157715 1.97058
-5.04572 0.174436 1.97147
-2.07576 0.078654 0.811138
-1.87061 0.076767 0.731442
-1.85189 0.081504 0.723841
-1.86105 0.08809 0.727153
-1.86092 0.093293 0.726828
-2.03767 0.108217 0.795164
-5.02392 0.28176 1.9598
-5.02233 0.297501 1.96156
-5.10118 -0.289665 2.00853
-5.07483 -0.273067 1.99578
-5.09456 -0.25897 2.0022
-5.0957 -0.242981 2.00131
-5.07784 -0.226144 1.994
-5.08716 -0.209657 1.99943
-5.07821 -0.191535 1.99666
-5.10635 -0.176532 2.00853
-5.08792 -0.159894 2.0021
-5.08877 -0.143032 2.00121
-5.09848 -0.128165 2.00487
-5.0799 -0.111731 1.99844
-5.08089 -0.097557 1.99666
-5.0722 -0.082337 1.99212
-5.07278 -0.066407 1.99124
-5.07332 -0.049587 1.99035
-5.08241 -0.033709 1.99489
-5.06353 -0.01679 1.98846
-5.08182 0 1.99666
-5.06248 0.01767 1.99112
-5.07172 0.032753 1.99478
-5.05332 0.048509 1.98657
-5.05316 0.063504 1.98657
-5.0626 0.078646 1.98935
-5.072 0.093844 1.99212
-5.07204 0.108902 1.99124
-5.07237 0.124852 1.98946
-5.02471 0.140354 1.97297
-5.07001 0.159332 1.99301
-5.05054 0.174603 1.98657
-5.01239 0.189929 1.97281
-1.88768 0.077467 0.742679
-1.85966 0.08217 0.731378
-1.86871 0.088126 0.735035
-1.87773 0.094136 0.738692
-1.95206 0.10367 0.767265
-4.9909 0.279908 1.96201
-5.05534 0.300341 1.9867
-5.09641 -0.286718 2.021
-5.09724 -0.271596 2.021
-5.08909 -0.25602 2.01643
-5.09951 -0.240487 2.01922
-5.10024 -0.224466 2.01922
-5.07375 -0.20733 2.00642
-5.08338 -0.189954 2.01098
-5.09258 -0.173386 2.01643
-5.07451 -0.156813 2.00907
-5.07463 -0.140862 2.00996
-5.06575 -0.124689 2.00628
-5.0847 -0.109174 2.01364
-5.07569 -0.094799 2.00996
-5.08595 -0.079896 2.01187
-5.07687 -0.064688 2.00819
-5.08635 -0.047939 2.01187
-5.08684 -0.031075 2.01098
-5.05866 -0.014126 2.00083
-5.06728 0.002653 2.00628
-5.05795 0.01942 2.0026
-5.07611 0.035439 2.01085
-5.07598 0.050499 2.01085
-5.05756 0.065325 2.0026
-5.07594 0.080625 2.00996
-5.05743 0.095341 2.00171
-5.06674 0.112327 2.00451
-5.05741 0.128016 1.99995
-5.05733 0.143915 1.99907
-5.04718 0.160378 1.99627
-5.04593 0.177088 1.99804
-5.03602 0.193465 1.99436
-1.95086 0.080742 0.773062
-1.86687 0.083142 0.740256
-1.86673 0.089012 0.73993
-1.85732 0.093762 0.735925
-1.89432 0.100935 0.750312
-2.13568 0.120525 0.845193
-5.06824 0.302885 2.00819
-5.09152 -0.285551 2.03347
-5.093 -0.271371 2.03169
-5.09383 -0.255368 2.03169
-5.10385 -0.240691 2.03539
-5.096 -0.22428 2.02991
-5.07784 -0.205722 2.0234
-5.06921 -0.188538 2.0197
-5.0887 -0.173254 2.02621
-5.08854 -0.156358 2.02799
-5.089 -0.140372 2.02799
-5.08907 -0.124374 2.02888
-5.08906 -0.109267 2.02977
-5.08043 -0.094 2.02518
-5.09032 -0.079077 2.02799
-5.0809 -0.062966 2.02518
-5.06286 -0.04595 2.01689
-5.06298 -0.030045 2.01689
-5.07234 -0.013279 2.02059
-5.07236 0.003541 2.02059
-5.09019 0.020432 2.02977
-5.06224 0.036225 2.01865
-5.08068 0.051432 2.02606
-5.05228 0.067021 2.01583
-5.07135 0.081438 2.02147
-5.05286 0.096137 2.01319
-5.05219 0.112004 2.01407
-5.05216 0.127883 2.01319
-5.05171 0.144638 2.01319
-5.06011 0.162556 2.01777
-5.07849 0.179119 2.02429
-5.04967 0.194872 2.01407
-2.01404 0.084061 0.803406
-1.8653 0.083398 0.744169
-1.86479 0.08892 0.74482
-1.85535 0.094312 0.740791
-1.88304 0.100993 0.751573
-2.06806 0.117433 0.825982
-5.05365 0.302899 2.01777
-5.07733 -0.283866 2.0422
-5.09668 -0.269782 2.04965
-5.09746 -0.254658 2.04965
-5.10786 -0.239094 2.05249
-5.08972 -0.221333 2.04592
-5.0997 -0.204825 2.04965
-5.08213 -0.18813 2.04131
-5.0731 -0.17095 2.03847
-5.0929 -0.154713 2.04415
-5.093 -0.138701 2.04503
-5.06556 -0.122915 2.03386
-5.08482 -0.108288 2.04042
-5.06585 -0.092846 2.03475
-5.05717 -0.077679 2.03014
-5.06703 -0.06191 2.03298
-5.06684 -0.045986 2.03386
-5.10338 -0.028504 2.05054
-5.06668 -0.011495 2.03475
-5.0667 0.004421 2.03475
-5.07629 0.021265 2.03758
-5.08547 0.038167 2.04131
-5.06642 0.053057 2.03475
-5.05731 0.06797 2.03014
-5.07565 0.083279 2.03758
-5.04719 0.097791 2.02729
-5.05649 0.113865 2.03014
-5.07428 0.131102 2.03847
-5.05529 0.146506 2.03102
-5.06405 0.163568 2.03475
-5.05386 0.180016 2.0319
-5.04431 0.196428 2.02729
-2.04914 0.086242 0.823229
-1.87258 0.084706 0.752781
-1.86319 0.089496 0.748729
-1.86292 0.095023 0.748729
-1.85338 0.099727 0.745004
-2.01994 0.115761 0.811701
-5.09969 -0.298511 2.06497
-5.0913 -0.282865 2.06123
-5.10137 -0.268245 2.06497
-5.10215 -0.253107 2.06497
-5.10256 -0.237061 2.06587
-5.08515 -0.219354 2.05748
-5.06697 -0.201739 2.05087
-5.08578 -0.185599 2.05925
-5.06852 -0.169025 2.04998
-5.09649 -0.153041 2.06212
-5.07877 -0.13654 2.05373
-5.08916 -0.120821 2.0557
-5.05204 -0.105826 2.04161
-5.08016 -0.090448 2.05284
-5.07078 -0.075232 2.04998
-5.07063 -0.059298 2.05087
-5.08934 -0.043525 2.05837
-5.07091 -0.026552 2.05087
-5.07061 -0.009734 2.05175
-5.07026 0.007964 2.05264
-5.0613 0.023852 2.048
-5.07047 0.039824 2.05175
-5.06177 0.054775 2.04624
-5.07975 0.070932 2.05462
-5.07954 0.085116 2.05462
-5.05146 0.099638 2.04337
-5.06039 0.11572 2.04712
-5.06036 0.131626 2.04624
-5.07804 0.149826 2.05462
-5.04013 0.164556 2.0405
-5.05844 0.18195 2.04712
-5.07597 0.199436 2.0555
-4.88083 0.207127 1.97673
-1.87084 0.085282 0.757032
-1.86133 0.090057 0.753285
-1.87031 0.096055 0.757032
-1.86089 0.101108 0.752959
-1.97137 0.113323 0.798601
-5.10358 -0.297844 2.08211
-5.10516 -0.282742 2.08033
-5.07818 -0.267026 2.06902
-5.08789 -0.251509 2.07368
-5.11677 -0.236826 2.0841
-5.07975 -0.219121 2.0708
-5.07976 -0.20136 2.07257
-5.0804 -0.184515 2.07257
-5.07137 -0.167348 2.06968
-5.08115 -0.150806 2.07346
-5.09156 -0.135994 2.07546
-5.08268 -0.120668 2.07168
-5.08374 -0.105602 2.06991
-5.06587 -0.090193 2.06148
-5.06577 -0.074274 2.06237
-5.06598 -0.058357 2.06237
-5.0843 -0.042595 2.0708
-5.05627 -0.025593 2.06036
-5.08411 -0.008873 2.07168
-5.09301 0.008 2.07635
-5.05592 0.023827 2.06125
-5.05618 0.039712 2.06036
-5.04677 0.055493 2.05659
-5.07472 0.070862 2.06703
-5.05633 0.08561 2.0586
-5.06531 0.100795 2.06237
-5.05567 0.118261 2.0586
-5.05496 0.132368 2.05948
-5.05375 0.149992 2.06125
-5.06287 0.166183 2.06414
-5.06157 0.182947 2.0659
-5.06093 0.199729 2.0659
-5.02363 0.214065 2.04992
-1.91484 0.087287 0.781461
-1.85921 0.09028 0.758485
-1.85933 0.095816 0.757511
-1.84967 0.100499 0.754065
-1.90467 0.109823 0.77702
-5.09854 -0.296657 2.0946
-5.09976 -0.281549 2.09371
-5.0825 -0.264585 2.08523
-5.09287 -0.249973 2.08813
-5.10251 -0.234381 2.09281
-5.09398 -0.217953 2.08902
-5.10358 -0.20052 2.09371
-5.08497 -0.183792 2.0879
-5.09516 -0.167243 2.0908
-5.08641 -0.150962 2.08701
-5.07725 -0.134725 2.0841
-5.09615 -0.119207 2.09169
-5.09684 -0.104095 2.0908
-5.07934 -0.089546 2.08144
-5.07071 -0.073461 2.07676
-5.07055 -0.057525 2.07765
-5.09846 -0.041824 2.08902
-5.07934 -0.023937 2.08321
-5.07867 -0.007091 2.08499
-5.06941 0.009732 2.08119
-5.06972 0.026546 2.08031
-5.06036 0.041511 2.07651
-5.07908 0.056735 2.08321
-5.07889 0.071807 2.08321
-5.07866 0.086875 2.08321
-5.05133 0.102283 2.07007
-5.05063 0.118143 2.07095
-5.07798 0.134744 2.08233
-5.06825 0.151308 2.07854
-5.04851 0.167476 2.07271
-5.06605 0.184879 2.08119
-5.05656 0.200441 2.07651
-5.03706 0.215518 2.0698
-1.98698 0.090923 0.816178
-1.85733 0.090514 0.763031
-1.85719 0.096032 0.762707
-1.86654 0.102068 0.765523
-1.86607 0.107924 0.765849
-5.09309 -0.295449 2.10796
-5.09427 -0.281246 2.10707
-5.09549 -0.265261 2.10618
-5.08707 -0.248799 2.10236
-5.09775 -0.234163 2.1044
-5.10733 -0.218525 2.1091
-5.07962 -0.199579 2.09944
-5.08028 -0.181847 2.09944
-5.10818 -0.166778 2.11178
-5.08062 -0.149015 2.10121
-5.08141 -0.133948 2.10032
-5.08215 -0.11888 2.09944
-5.07326 -0.102727 2.09562
-5.102 -0.088164 2.10529
-5.08338 -0.072757 2.09855
-5.08432 -0.056794 2.09678
-5.05675 -0.039716 2.08534
-5.06573 -0.022989 2.09003
-5.05653 -0.00706 2.08622
-5.06468 0.010607 2.09269
-5.06389 0.026516 2.09445
-5.05527 0.042352 2.08887
-5.06436 0.057455 2.09269
-5.06451 0.074255 2.0918
-5.08353 0.086958 2.09766
-5.05514 0.102361 2.0871
-5.04591 0.118033 2.08241
-5.07324 0.134619 2.09385
-5.04466 0.151485 2.08329
-5.04376 0.1682 2.08417
-5.06168 0.18472 2.0918
-5.05148 0.200239 2.08887
-5.02312 0.214922 2.07741
-2.03113 0.093299 0.84013
-1.87405 0.091656 0.774883
-1.85559 0.095949 0.7666
-1.8553 0.101454 0.7666
-1.86447 0.107831 0.769762
-5.10695 -0.292676 2.12721
-5.11701 -0.278024 2.13105
-5.08125 -0.261852 2.1148
-5.09164 -0.24635 2.11775
-5.09239 -0.230354 2.11775
-5.0839 -0.213078 2.11391
-5.08425 -0.195317 2.1148
-5.10292 -0.17998 2.12337
-5.0946 -0.163664 2.11864
-5.06706 -0.145962 2.10801
-5.09444 -0.130733 2.12131
-5.09557 -0.114745 2.11953
-5.0955 -0.100509 2.12042
-5.08691 -0.08524 2.11569
-5.06906 -0.069013 2.10713
-5.06925 -0.053086 2.10713
-5.07863 -0.037229 2.11097
-5.06986 -0.019468 2.10624
-5.05993 -0.002649 2.10417
-5.08761 0.014207 2.11569
-5.0687 0.030079 2.1089
-5.05862 0.045912 2.10682
-5.06843 0.06104 2.1089
-5.07782 0.076223 2.11185
-5.05912 0.090073 2.10417
-5.06805 0.106161 2.10801
-5.05922 0.120994 2.10241
-5.06802 0.138021 2.10624
-5.05788 0.1563 2.10329
-5.057 0.172175 2.10417
-5.0472 0.18772 2.10033
-5.04619 0.20444 2.10121
-5.06364 0.220197 2.10978
-2.06591 0.095981 0.860461
-1.85351 0.091949 0.77211
-1.85338 0.097132 0.771786
-1.85306 0.102954 0.771786
-1.87132 0.109538 0.779138
-5.09179 -0.291807 2.13762
-5.08338 -0.277086 2.13376
-5.09413 -0.262516 2.13584
-5.0953 -0.246527 2.13495
-5.07762 -0.229686 2.12723
-5.07832 -0.213732 2.12723
-5.09676 -0.195798 2.13673
-5.10694 -0.180122 2.1397
-5.07985 -0.162303 2.12812
-5.08918 -0.146599 2.13287
-5.08962 -0.130609 2.13287
-5.08039 -0.11529 2.12989
-5.08993 -0.100399 2.13376
-5.09021 -0.085295 2.13376
-5.07236 -0.069943 2.12514
-5.08179 -0.053218 2.129
-5.07309 -0.036303 2.12425
-5.07281 -0.019479 2.12514
-5.06399 -0.002651 2.12039
-5.04516 0.014088 2.11355
-5.09083 0.030211 2.13376
-5.08186 0.046122 2.129
-5.06289 0.060973 2.12216
-5.03503 0.074702 2.11056
-5.08164 0.090474 2.12812
-5.08133 0.10644 2.12812
-5.05328 0.122617 2.11653
-5.05327 0.137619 2.11565
-5.0428 0.154953 2.11355
-5.05147 0.171987 2.11741
-5.05128 0.187871 2.11653
-5.05951 0.204095 2.12128
-5.05884 0.219988 2.12128
-4.97484 0.231997 2.08737
-1.87898 0.093212 0.78889
-1.84201 0.096536 0.7731
-1.85106 0.102518 0.776642
-1.85057 0.108647 0.776965
-5.08746 -0.288886 2.1483
-5.0883 -0.273791 2.1483
-5.08871 -0.258672 2.14919
-5.08067 -0.242264 2.14441
-5.09944 -0.227106 2.15307
-5.109 -0.210557 2.15785
-5.08208 -0.191681 2.14619
-5.06424 -0.175076 2.13841
-5.08321 -0.158858 2.14619
-5.09365 -0.143169 2.1483
-5.08448 -0.126926 2.1453
-5.07598 -0.112531 2.14053
-5.09436 -0.096926 2.14919
-5.07618 -0.082401 2.14141
-5.09486 -0.065807 2.14919
-5.09504 -0.049799 2.14919
-5.06715 -0.033607 2.13841
-5.08604 -0.015977 2.1453
-5.06727 0.000884 2.13841
-5.08566 0.017751 2.14619
-5.07712 0.032788 2.14053
-5.05856 0.04856 2.13276
-5.05803 0.063565 2.13364
-5.09504 0.07915 2.1483
-5.04799 0.092519 2.13064
-5.04805 0.108387 2.12976
-5.05689 0.124471 2.13364
-5.06529 0.141488 2.13841
-5.06479 0.158283 2.13841
-5.05503 0.174758 2.13453
-5.05443 0.191522 2.13453
-5.05454 0.207429 2.13276
-5.0627 0.223699 2.13753
-4.89635 0.230906 2.06757
-1.85887 0.09319 0.785056
-1.85859 0.098706 0.785056
-1.84909 0.103704 0.78117
-1.85809 0.110065 0.784731
-5.08263 -0.287722 2.15985
-5.09228 -0.273114 2.16465
-5.10226 -0.258468 2.16856
-5.11186 -0.242858 2.17336
-5.08468 -0.22467 2.16252
-5.09493 -0.209087 2.16554
-5.09522 -0.192177 2.16643
-5.07743 -0.174645 2.15861
-5.07836 -0.15782 2.15772
-5.06888 -0.141588 2.15558
-5.09727 -0.126355 2.16643
-5.07078 -0.110645 2.15293
-5.08027 -0.096658 2.15684
-5.08055 -0.080698 2.15684
-5.0988 -0.064968 2.16554
-5.0802 -0.048767 2.15861
-5.0623 -0.031808 2.1499
-5.08003 -0.015072 2.1595
-5.07085 0.00177 2.15558
-5.07082 0.01947 2.15558
-5.07072 0.036286 2.15558
-5.07136 0.049568 2.15381
-5.07157 0.064621 2.15293
-5.07098 0.079661 2.15381
-5.0711 0.094713 2.15293
-5.0612 0.110436 2.1499
-5.06045 0.126326 2.15079
-5.05118 0.142858 2.146
-5.0595 0.159885 2.15079
-5.05857 0.176648 2.15167
-5.04913 0.193086 2.14688
-5.06652 0.209692 2.15558
-5.04823 0.223943 2.146
-5.03831 0.239363 2.14209
-1.93062 0.097125 0.820535
-1.85679 0.098935 0.789277
-1.84728 0.104249 0.78537
-1.84667 0.110036 0.786015
-5.10466 -0.286288 2.18496
-5.1062 -0.272074 2.18318
-5.09742 -0.256439 2.18014
-5.08864 -0.239974 2.17711
-5.07984 -0.22268 2.17406
-5.08017 -0.205817 2.17495
-5.0992 -0.189653 2.18282
-5.08177 -0.173019 2.17406
-5.09075 -0.156426 2.17977
-5.08243 -0.139301 2.17495
-5.1012 -0.12467 2.18282
-5.06516 -0.108754 2.1662
-5.07541 -0.093907 2.16836
-5.05728 -0.078563 2.1605
-5.08471 -0.063013 2.17318
-5.05729 -0.046782 2.16139
-5.07505 -0.030117 2.17102
-5.07475 -0.012399 2.1719
-5.05638 0.004412 2.16403
-5.07397 0.020367 2.17367
-5.06506 0.036246 2.16885
-5.0745 0.052256 2.1719
-5.04712 0.066952 2.15922
-5.06604 0.082237 2.16532
-5.06617 0.09639 2.16443
-5.06584 0.112307 2.16443
-5.07428 0.128443 2.16925
-5.06347 0.145859 2.16797
-5.07177 0.162931 2.17279
-5.06242 0.178552 2.16797
-5.04305 0.194616 2.16098
-5.06154 0.211256 2.16708
-5.06089 0.226274 2.16708
-5.03303 0.239993 2.15441
-1.97464 0.100031 0.84456
-1.85482 0.09948 0.793818
-1.84532 0.104785 0.789888
-1.85416 0.111132 0.793818
-5.1081 -0.286481 2.2023
-5.1181 -0.271812 2.20625
-5.07378 -0.254362 2.18471
-5.10247 -0.239734 2.19567
-5.11199 -0.224089 2.20051
-5.11236 -0.206227 2.2014
-5.09389 -0.188566 2.19528
-5.0941 -0.171658 2.19617
-5.09462 -0.155655 2.19617
-5.06754 -0.138893 2.1843
-5.07713 -0.123196 2.18825
-5.07824 -0.108148 2.18648
-5.07855 -0.092192 2.18648
-5.07955 -0.078023 2.18471
-5.07097 -0.061958 2.17987
-5.07956 -0.046101 2.18559
-5.07012 -0.029203 2.18253
-5.08856 -0.012433 2.19043
-5.06026 0.004416 2.18034
-5.06978 0.02035 2.18341
-5.06931 0.037161 2.1843
-5.06956 0.052205 2.18341
-5.06056 0.068014 2.17857
-5.06073 0.082151 2.17769
-5.07922 0.097525 2.18471
-5.05133 0.112867 2.17286
-5.06014 0.128969 2.17681
-5.07767 0.146268 2.18559
-5.04005 0.161912 2.17067
-5.03873 0.178597 2.17243
-5.06605 0.195504 2.18341
-5.06503 0.211402 2.1843
-5.04599 0.226491 2.17638
-5.04568 0.241479 2.1755
-2.01813 0.102587 0.869847
-1.86219 0.099875 0.801981
-1.8435 0.105004 0.79408
-1.84303 0.110788 0.794402
-5.12036 -0.285376 2.22453
-5.09409 -0.268754 2.2117
-5.09486 -0.253637 2.2117
-5.08685 -0.237221 2.20684
-5.09794 -0.220797 2.20814
-5.10739 -0.205134 2.21301
