ply
format ascii 1.0
comment created by 3d_to_ply
element vertex 50
property float32 x
property float32 y
property float32 z
property uint8 red
property uint8 green
property uint8 blue
end_header
-12.000000 -25.660300 10.000000 255 255 255
-14.500000 -21.330100 10.000000 255 255 255
-17.000000 -17.000000 10.000000 255 255 255
-19.500000 -12.669870 10.000000 255 255 255
-22.000000 -8.339750 10.000000 255 255 255
-12.000000 -25.660300 5.000000 255 255 255
-14.500000 -21.330100 5.000000 255 255 255
-17.000000 -17.000000 5.000000 255 255 255
-19.500000 -12.669870 5.000000 255 255 255
-22.000000 -8.339750 5.000000 255 255 255
-12.000000 -25.660300 0.000000 255 255 255
-14.500000 -21.330100 0.000000 255 255 255
-17.000000 -17.000000 0.000000 255 255 255
-19.500000 -12.669870 0.000000 255 255 255
-22.000000 -8.339750 0.000000 255 255 255
-12.000000 -25.660300 -5.000000 255 255 255
-14.500000 -21.330100 -5.000000 255 255 255
-17.000000 -17.000000 -5.000000 255 255 255
-19.500000 -12.669870 -5.000000 255 255 255
-22.000000 -8.339750 -5.000000 255 255 255
-12.000000 -25.660300 -10.000000 255 255 255
-14.500000 -21.330100 -10.000000 255 255 255
-17.000000 -17.000000 -10.000000 255 255 255
-19.500000 -12.669870 -10.000000 255 255 255
-22.000000 -8.339750 -10.000000 255 255 255
-15.000000 -23.928200 8.000000 255 255 255
-17.000000 -20.464100 8.000000 255 255 255
-19.000000 -17.000000 8.000000 255 255 255
-21.000000 -13.535900 8.000000 255 255 255
-23.000000 -10.071800 8.000000 255 255 255
-15.000000 -23.928200 4.000000 255 255 255
-17.000000 -20.464100 4.000000 255 255 255
-19.000000 -17.000000 4.000000 255 255 255
-21.000000 -13.535900 4.000000 255 255 255
-23.000000 -10.071800 4.000000 255 255 255
-15.000000 -23.928200 0.000000 255 255 255
-17.000000 -20.464100 0.000000 255 255 255
-19.000000 -17.000000 0.000000 255 255 255
-21.000000 -13.535900 0.000000 255 255 255
-23.000000 -10.071800 0.000000 255 255 255
-15.000000 -23.928200 -4.000000 255 255 255
-17.000000 -20.464100 -4.000000 255 255 255
-19.000000 -17.000000 -4.000000 255 255 255
-21.000000 -13.535900 -4.000000 255 255 255
-23.000000 -10.071800 -4.000000 255 255 255
-15.000000 -23.928200 -8.000000 255 255 255
-17.000000 -20.464100 -8.000000 255 255 255
-19.000000 -17.000000 -8.000000 255 255 255
-21.000000 -13.535900 -8.000000 255 255 255
-23.000000 -10.071800 -8.000000 255 255 255
