ply
format ascii 1.0
element vertex 421
property float x
property float y
property float z
end_header
0 0 0
-0.208549 -0.438347 -0.119828
-0.271114 -0.569852 -0.155777
-0.333678 -0.701356 -0.191725
-0.396243 -0.83286 -0.227674
-0.458808 -0.964364 -0.263622
-0.521372 -1.09587 -0.299571
-0.583937 -1.22737 -0.335519
-0.646502 -1.35888 -0.371468
-0.709066 -1.49038 -0.407416
-0.771631 -1.62189 -0.443365
-0.834196 -1.75339 -0.479313
-0.89676 -1.88489 -0.515262
-0.959325 -2.0164 -0.55121
-1.02189 -2.1479 -0.587159
-1.08445 -2.27941 -0.623107
-1.14702 -2.41091 -0.659056
-1.20958 -2.54242 -0.695004
-1.27215 -2.67392 -0.730953
-1.33471 -2.80542 -0.766901
-1.39728 -2.93693 -0.80285
-1.45984 -3.06843 -0.838798
-1.52241 -3.19994 -0.874747
-1.58497 -3.33144 -0.910695
-1.64754 -3.46295 -0.946644
-1.7101 -3.59445 -0.982592
-1.77267 -3.72595 -1.01854
-1.83523 -3.85746 -1.05449
-1.8978 -3.98896 -1.09044
-1.96036 -4.12047 -1.12639
-2.02292 -4.25197 -1.16233
-0.148284 -0.460302 -0.127019
-0.192769 -0.598393 -0.165124
-0.237255 -0.736483 -0.20323
-0.28174 -0.874574 -0.241336
-0.326225 -1.01266 -0.279441
-0.37071 -1.15076 -0.317547
-0.415196 -1.28885 -0.355653
-0.459681 -1.42694 -0.393758
-0.504166 -1.56503 -0.431864
-0.548651 -1.70312 -0.46997
-0.593137 -1.84121 -0.508075
-0.637622 -1.9793 -0.546181
-0.682107 -2.11739 -0.584287
-0.726593 -2.25548 -0.622392
-0.771078 -2.39357 -0.660498
-0.815563 -2.53166 -0.698604
-0.860048 -2.66975 -0.736709
-0.904534 -2.80784 -0.774815
-0.949019 -2.94593 -0.812921
-0.993504 -3.08402 -0.851026
-1.03799 -3.22211 -0.889132
-1.08247 -3.36021 -0.927237
-1.12696 -3.4983 -0.965343
-1.17145 -3.63639 -1.00345
-1.21593 -3.77448 -1.04155
-1.26042 -3.91257 -1.07966
-1.3049 -4.05066 -1.11777
-1.34939 -4.18875 -1.15587
-1.39387 -4.32684 -1.19398
-1.43836 -4.46493 -1.23208
-0.134843 -0.4635 -0.130328
-0.175296 -0.60255 -0.169427
-0.215748 -0.7416 -0.208525
-0.256201 -0.880649 -0.247624
-0.296654 -1.0197 -0.286722
-0.337107 -1.15875 -0.32582
-0.37756 -1.2978 -0.364919
-0.418013 -1.43685 -0.404017
-0.458465 -1.5759 -0.443116
-0.498918 -1.71495 -0.482214
-0.539371 -1.854 -0.521313
-0.579824 -1.99305 -0.560411
-0.620277 -2.1321 -0.59951
-0.660729 -2.27115 -0.638608
-0.701182 -2.4102 -0.677707
-0.741635 -2.54925 -0.716805
-0.782088 -2.6883 -0.755903
-0.822541 -2.82735 -0.795002
-0.862994 -2.9664 -0.8341
-0.903446 -3.10545 -0.873199
-0.943899 -3.2445 -0.912297
-0.984352 -3.38355 -0.951396
-1.0248 -3.5226 -0.990494
-1.06526 -3.66165 -1.02959
-1.10571 -3.8007 -1.06869
-1.14616 -3.93975 -1.10779
-1.18662 -4.0788 -1.14689
-1.22707 -4.21785 -1.18599
-1.26752 -4.3569 -1.22508
-1.30797 -4.49595 -1.26418
-0.0734157 -0.476186 -0.133631
-0.0954403 -0.619041 -0.173721
-0.117465 -0.761897 -0.21381
-0.13949 -0.904753 -0.2539
-0.161514 -1.04761 -0.293989
-0.183539 -1.19046 -0.334079
-0.205564 -1.33332 -0.374168
-0.227589 -1.47618 -0.414257
-0.249613 -1.61903 -0.454347
-0.271638 -1.76189 -0.494436
-0.293663 -1.90474 -0.534526
-0.315687 -2.0476 -0.574615
-0.337712 -2.19045 -0.614704
-0.359737 -2.33331 -0.654794
-0.381761 -2.47617 -0.694883
-0.403786 -2.61902 -0.734973
-0.425811 -2.76188 -0.775062
-0.447835 -2.90473 -0.815152
-0.46986 -3.04759 -0.855241
-0.491885 -3.19044 -0.89533
-0.51391 -3.3333 -0.93542
-0.535934 -3.47616 -0.975509
-0.557959 -3.61901 -1.0156
-0.579984 -3.76187 -1.05569
-0.602008 -3.90472 -1.09578
-0.624033 -4.04758 -1.13587
-0.646058 -4.19043 -1.17596
-0.668082 -4.33329 -1.21605
-0.690107 -4.47615 -1.25614
-0.712132 -4.619 -1.29622
0.473845 0.0864054 0.134181
0.615999 0.112327 0.174436
0.758153 0.138249 0.21469
0.900306 0.16417 0.254945
1.04246 0.190092 0.295199
1.18461 0.216013 0.335453
1.32677 0.241935 0.375708
1.46892 0.267857 0.415962
1.61107 0.293778 0.456217
1.75323 0.3197 0.496471
1.89538 0.345622 0.536725
2.03754 0.371543 0.57698
2.17969 0.397465 0.617234
2.32184 0.423386 0.657489
2.464 0.449308 0.697743
2.60615 0.47523 0.737997
2.7483 0.501151 0.778252
2.89046 0.527073 0.818506
3.03261 0.552995 0.858761
3.17476 0.578916 0.899015
3.31692 0.604838 0.939269
3.45907 0.630759 0.979524
3.60123 0.656681 1.01978
3.74338 0.682603 1.06003
3.88553 0.708524 1.10029
4.02769 0.734446 1.14054
4.16984 0.760367 1.1808
4.31199 0.786289 1.22105
4.45415 0.812211 1.2613
4.5963 0.838132 1.30156
0.481052 -0.0241831 0.134181
0.625367 -0.031438 0.174436
0.769682 -0.0386929 0.21469
0.913998 -0.0459478 0.254945
1.05831 -0.0532027 0.295199
1.20263 -0.0604576 0.335453
1.34694 -0.0677126 0.375708
1.49126 -0.0749675 0.415962
1.63558 -0.0822224 0.456217
1.77989 -0.0894773 0.496471
1.92421 -0.0967322 0.536725
2.06852 -0.103987 0.57698
2.21284 -0.111242 0.617234
2.35715 -0.118497 0.657489
2.50147 -0.125752 0.697743
2.64578 -0.133007 0.737997
2.7901 -0.140262 0.778252
2.93441 -0.147517 0.818506
3.07873 -0.154772 0.858761
3.22305 -0.162026 0.899015
3.36736 -0.169281 0.939269
3.51168 -0.176536 0.979524
3.65599 -0.183791 1.01978
3.80031 -0.191046 1.06003
3.94462 -0.198301 1.10029
4.08894 -0.205556 1.14054
4.23325 -0.212811 1.1808
4.37757 -0.220066 1.22105
4.52188 -0.227321 1.2613
4.6662 -0.234576 1.30156
0.459542 0.0854244 -0.177549
0.597405 0.111052 -0.230813
0.735268 0.136679 -0.284078
0.87313 0.162306 -0.337343
1.01099 0.187934 -0.390607
1.14886 0.213561 -0.443872
1.28672 0.239188 -0.497136
1.42458 0.264816 -0.550401
1.56244 0.290443 -0.603666
1.70031 0.31607 -0.65693
1.83817 0.341698 -0.710195
1.97603 0.367325 -0.76346
2.11389 0.392952 -0.816724
2.25176 0.418579 -0.869989
2.38962 0.444207 -0.923253
2.52748 0.469834 -0.976518
2.66535 0.495461 -1.02978
2.80321 0.521089 -1.08305
2.94107 0.546716 -1.13631
3.07893 0.572343 -1.18958
3.2168 0.597971 -1.24284
3.35466 0.623598 -1.29611
3.49252 0.649225 -1.34937
3.63038 0.674853 -1.40264
3.76825 0.70048 -1.4559
3.90611 0.726107 -1.50916
4.04397 0.751735 -1.56243
4.18183 0.777362 -1.61569
4.3197 0.802989 -1.66896
4.45756 0.828616 -1.72222
0.466132 -0.0250337 -0.179148
0.605972 -0.0325438 -0.232893
0.745811 -0.0400539 -0.286638
0.885651 -0.0475641 -0.340382
1.02549 -0.0550742 -0.394127
1.16533 -0.0625843 -0.447871
1.30517 -0.0700944 -0.501616
1.44501 -0.0776045 -0.55536
1.58485 -0.0851146 -0.609105
1.72469 -0.0926248 -0.662849
1.86453 -0.100135 -0.716594
2.00437 -0.107645 -0.770338
2.14421 -0.115155 -0.824083
2.28405 -0.122665 -0.877827
2.42389 -0.130175 -0.931572
2.56373 -0.137685 -0.985316
2.70357 -0.145196 -1.03906
2.84341 -0.152706 -1.09281
2.98325 -0.160216 -1.14655
3.12309 -0.167726 -1.20029
3.26292 -0.175236 -1.25404
3.40276 -0.182746 -1.30778
3.5426 -0.190256 -1.36153
3.68244 -0.197766 -1.41527
3.82228 -0.205276 -1.46902
3.96212 -0.212787 -1.52276
4.10196 -0.220297 -1.57651
4.2418 -0.227807 -1.63025
4.38164 -0.235317 -1.684
4.52148 -0.242827 -1.73774
0.00698902 0.470912 0.167907
0.00908573 0.612186 0.21828
0.0111824 0.753459 0.268652
0.0132791 0.894733 0.319024
0.0153759 1.03601 0.369396
0.0174726 1.17728 0.419768
0.0195693 1.31855 0.470141
0.021666 1.45983 0.520513
0.0237627 1.6011 0.570885
0.0258594 1.74237 0.621257
0.0279561 1.88365 0.67163
0.0300528 2.02492 0.722002
0.0321495 2.1662 0.772374
0.0342462 2.30747 0.822746
0.0363429 2.44874 0.873118
0.0384396 2.59002 0.923491
0.0405363 2.73129 0.973863
0.0426331 2.87256 1.02424
0.0447298 3.01384 1.07461
0.0468265 3.15511 1.12498
0.0489232 3.29639 1.17535
0.0510199 3.43766 1.22572
0.0531166 3.57893 1.2761
0.0552133 3.72021 1.32647
0.05731 3.86148 1.37684
0.0594067 4.00275 1.42721
0.0615034 4.14403 1.47759
0.0636001 4.2853 1.52796
0.0656968 4.42657 1.57833
0.0677935 4.56785 1.6287
0.0809124 0.464735 0.165755
0.105186 0.604155 0.215482
0.12946 0.743576 0.265208
0.153734 0.882996 0.314935
0.178007 1.02242 0.364661
0.202281 1.16184 0.414388
0.226555 1.30126 0.464114
0.250828 1.44068 0.513841
0.275102 1.5801 0.563567
0.299376 1.71952 0.613294
0.32365 1.85894 0.66302
0.347923 1.99836 0.712747
0.372197 2.13778 0.762473
0.396471 2.2772 0.8122
0.420745 2.41662 0.861927
0.445018 2.55604 0.911653
0.469292 2.69546 0.96138
0.493566 2.83488 1.01111
0.517839 2.9743 1.06083
0.542113 3.11372 1.11056
0.566387 3.25314 1.16029
0.590661 3.39256 1.21001
0.614934 3.53198 1.25974
0.639208 3.6714 1.30947
0.663482 3.81083 1.35919
0.687756 3.95025 1.40892
0.712029 4.08967 1.45864
0.736303 4.22909 1.50837
0.760577 4.36851 1.5581
0.78485 4.50793 1.60782
0.00627255 0.49949 0.021683
0.00815431 0.649337 0.0281879
0.0100361 0.799184 0.0346928
0.0119178 0.949031 0.0411976
0.0137996 1.09888 0.0477025
0.0156814 1.24873 0.0542074
0.0175631 1.39857 0.0607123
0.0194449 1.54842 0.0672172
0.0213267 1.69827 0.0737221
0.0232084 1.84811 0.080227
0.0250902 1.99796 0.0867319
0.026972 2.14781 0.0932368
0.0288537 2.29766 0.0997417
0.0307355 2.4475 0.106247
0.0326172 2.59735 0.112751
0.034499 2.7472 0.119256
0.0363808 2.89704 0.125761
0.0382625 3.04689 0.132266
0.0401443 3.19674 0.138771
0.0420261 3.34658 0.145276
0.0439078 3.49643 0.151781
0.0457896 3.64628 0.158286
0.0476714 3.79613 0.164791
0.0495531 3.94597 0.171295
0.0514349 4.09582 0.1778
0.0533167 4.24567 0.184305
0.0551984 4.39551 0.19081
0.0570802 4.54536 0.197315
0.0589619 4.69521 0.20382
0.0608437 4.84506 0.210325
0.0800695 0.493143 0.0199721
0.10409 0.641086 0.0259637
0.128111 0.789029 0.0319554
0.152132 0.936972 0.037947
0.176153 1.08491 0.0439386
0.200174 1.23286 0.0499303
0.224194 1.3808 0.0559219
0.248215 1.52874 0.0619135
0.272236 1.67669 0.0679052
0.296257 1.82463 0.0738968
0.320278 1.97257 0.0798884
0.344299 2.12051 0.0858801
0.368319 2.26846 0.0918717
0.39234 2.4164 0.0978633
0.416361 2.56434 0.103855
0.440382 2.71229 0.109847
0.464403 2.86023 0.115838
0.488424 3.00817 0.12183
0.512445 3.15612 0.127821
0.536465 3.30406 0.133813
0.560486 3.452 0.139805
0.584507 3.59994 0.145796
0.608528 3.74789 0.151788
0.632549 3.89583 0.15778
0.65657 4.04377 0.163771
0.68059 4.19172 0.169763
0.704611 4.33966 0.175755
0.728632 4.4876 0.181746
0.752653 4.63554 0.187738
0.776674 4.78349 0.193729
-0.40262 -0.269687 0.12315
-0.523406 -0.350593 0.160096
-0.644192 -0.4315 0.197041
-0.764978 -0.512406 0.233986
-0.885764 -0.593312 0.270931
-1.00655 -0.674218 0.307876
-1.12734 -0.755124 0.344821
-1.24812 -0.836031 0.381766
-1.36891 -0.916937 0.418711
-1.48969 -0.997843 0.455657
-1.61048 -1.07875 0.492602
-1.73127 -1.15966 0.529547
-1.85205 -1.24056 0.566492
-1.97284 -1.32147 0.603437
-2.09362 -1.40237 0.640382
-2.21441 -1.48328 0.677327
-2.3352 -1.56419 0.714272
-2.45598 -1.64509 0.751217
-2.57677 -1.726 0.788163
-2.69755 -1.8069 0.825108
-2.81834 -1.88781 0.862053
-2.93912 -1.96872 0.898998
-3.05991 -2.04962 0.935943
-3.1807 -2.13053 0.972888
-3.30148 -2.21144 1.00983
-3.42227 -2.29234 1.04678
-3.54305 -2.37325 1.08372
-3.66384 -2.45415 1.12067
-3.78463 -2.53506 1.15761
-3.90541 -2.61597 1.19456
-0.419499 -0.246903 0.114279
-0.545348 -0.320974 0.148563
-0.671198 -0.395045 0.182847
-0.797048 -0.469116 0.21713
-0.922897 -0.543187 0.251414
-1.04875 -0.617257 0.285698
-1.1746 -0.691328 0.319982
-1.30045 -0.765399 0.354265
-1.4263 -0.83947 0.388549
-1.55215 -0.913541 0.422833
-1.67799 -0.987612 0.457117
-1.80384 -1.06168 0.4914
-1.92969 -1.13575 0.525684
-2.05554 -1.20982 0.559968
-2.18139 -1.2839 0.594252
-2.30724 -1.35797 0.628535
-2.43309 -1.43204 0.662819
-2.55894 -1.50611 0.697103
-2.68479 -1.58018 0.731387
-2.81064 -1.65425 0.76567
-2.93649 -1.72832 0.799954
-3.06234 -1.80239 0.834238
-3.18819 -1.87646 0.868522
-3.31404 -1.95053 0.902805
-3.43989 -2.0246 0.937089
-3.56574 -2.09868 0.971373
-3.69159 -2.17275 1.00566
-3.81744 -2.24682 1.03994
-3.94329 -2.32089 1.07422
-4.06914 -2.39496 1.10851
