ply
format ascii 1.0
element vertex 1282
property float x
property float y
property float z
end_header
-101.113 -99.2772 -101.084
-99.3881 -98.8431 -79.7579
-101.005 -98.8919 -60.9025
-100.552 -101.388 -40.8258
-100.544 -99.1874 -19.4963
-100.773 -101.509 -0.724244
-100.098 -99.7687 21.4425
-99.7436 -101.926 39.233
-99.5302 -100.756 59.9078
-100.788 -100.847 79.7581
-99.4738 -99.0846 99.7469
-100.422 -80.5537 -99.7745
-100.507 -80.0951 -79.0389
-101.659 -80.308 -60.2085
-100.206 -80.9498 -39.4978
-100.57 -79.9064 -21.2483
-100.71 -79.36 0.86077
-100.657 -80.5302 20.0673
-100.357 -80.6057 39.9288
-100.823 -80.0685 60.3412
-100.64 -81.2583 79.5651
-101.093 -79.6806 99.4925
-99.4577 -59.7149 -100.743
-100.984 -60.0167 -80.2455
-99.839 -59.7769 -59.4999
-100.614 -60.4419 -40.346
-99.5779 -60.2274 -21.0931
-101.312 -59.8381 0.0288022
-101.031 -60.8796 19.2596
-99.6523 -59.2291 40.4947
-101.34 -60.5955 59.5954
-99.0656 -59.1427 79.7021
-100.205 -60.0674 99.3857
-100.59 -39.7356 -99.211
-99.827 -41.5834 -80.6575
-98.8155 -38.65 -60.634
-100.234 -39.9188 -40.7564
-100.275 -40.5676 -20.7366
-100.632 -38.8797 0.458396
-98.8467 -39.1984 19.6288
-99.2327 -38.0378 38.9807
-99.0482 -40.3272 60.9277
-99.5452 -39.266 80.2119
-100.307 -41.5285 100.202
-99.8709 -20.8279 -99.9817
-99.968 -20.1143 -79.7123
-101.021 -19.4635 -60.1452
-98.831 -17.9326 -40.9721
-99.5773 -19.0696 -21.1998
-100.131 -19.8769 -0.75666
-99.2687 -21.0053 21.8378
-100.053 -19.8096 39.2342
-100.186 -18.9379 60.542
-99.9268 -20.5874 79.8309
-99.5078 -19.3507 100.153
-99.4327 -0.601487 -99.4335
-100.627 0.911157 -80.1552
-100.104 0.323115 -60.2249
-99.7013 -0.943431 -39.6209
-99.7153 -0.0287446 -20.3889
-101.038 -0.322709 -0.306941
-98.5928 1.47837 20.4076
-100.166 0.15902 39.3059
-99.6573 -0.750589 60.1663
-99.0725 1.27838 79.1412
-100.1 0.259305 100.576
-100.936 20.0653 -99.225
-100.219 20.1412 -80.0018
-99.0181 20.1839 -61.3453
-99.2572 20.7085 -39.8051
-99.9132 20.1942 -20.4429
-100.929 19.079 0.318355
-100.795 19.5398 19.9654
-101.273 20.4372 40.5149
-100.396 19.4378 59.4489
-98.4837 19.3091 80.3098
-99.886 20.5813 100.791
-99.6152 39.9016 -98.9944
-99.5407 40.6615 -80.4543
-98.9038 39.7036 -60.8679
-101.06 39.5832 -41.7917
-98.487 40.7301 -19.42
-99.0274 40.2581 -0.553732
-100.132 40.916 20.9211
-100.626 39.6231 39.5463
-101.11 38.7218 59.5335
-99.9643 39.1741 79.4752
-99.604 40.8058 99.9482
-100.917 60.3271 -100.317
-101.406 58.0135 -80.279
-100.523 60.0689 -59.4673
-99.2159 59.9597 -40.3005
-99.3728 59.1277 -19.6143
-99.4686 60.2126 -0.138195
-100.663 59.8483 20.1487
-100.782 59.546 40.543
-99.9515 59.3018 61.5595
-99.8043 59.0556 80.2748
-101.135 59.2326 98.9249
-98.2958 80.891 -100.745
-100.486 80.8719 -80.4108
-99.8261 78.7092 -60.7351
-100.43 80.0153 -40.4876
-100.789 79.6176 -21.2634
-99.2701 79.5293 0.110114
-100.821 79.8367 20.5724
-99.9036 80.7552 38.8147
-99.0929 80.1776 59.9897
-100.327 79.4048 79.9612
-98.7211 79.7729 100.103
-100.556 100.327 -100.456
-100.168 100.138 -80.8084
-100.885 99.4673 -60.53
-99.7395 99.5591 -40.7973
-100.336 100.692 -20.3902
-100.845 100.775 0.501647
-99.0214 99.1446 20.9117
-99.8074 100.343 39.7122
-100.397 99.5169 57.9712
-100.024 100.061 81.2679
-98.5766 98.7606 100.135
-81.3944 -100.496 -99.9686
-80.6325 -100.917 -81.1877
-80.6494 -100.608 -59.0276
-81.0131 -100.514 -39.0916
-81.2593 -99.2624 -19.7727
-80.7357 -99.8439 -0.944514
-79.849 -101.04 20.6397
-80.5903 -99.0603 40.1747
-80.2688 -101.732 60.559
-80.8037 -99.6125 80.0735
-80.077 -100.07 99.5512
-79.1885 -80.3831 -100.571
-79.1243 -80.6393 -80.6484
-79.6845 -79.2027 -59.429
-79.0646 -79.4208 -40.1071
-81.1302 -79.9283 -18.5708
-82.0063 -80.1133 0.0027076
-79.3702 -80.3544 19.0307
-80.1859 -81.0364 38.8907
-80.3451 -80.9212 59.7372
-80.8415 -79.0926 78.6948
-81.5249 -80.506 99.1073
-80.8226 -59.4956 -101.287
-79.8149 -60.458 -81.8623
-79.9528 -59.1639 -59.5086
-81.3177 -58.8964 -39.9023
-79.0281 -60.1782 -19.8668
-81.0563 -60.0429 0.807901
-80.4348 -59.3855 20.1427
-79.5395 -59.5734 40.7739
-80.4761 -60.5934 60.4033
-79.3661 -59.9386 79.5818
-79.3826 -60.278 100.049
-79.8144 -40.2102 -100.22
-79.6244 -40.9578 -80.0898
-80.0789 -39.4207 -60.8591
-79.0203 -39.6593 -39.1853
-80.2584 -38.9487 -19.3247
-80.4573 -39.4766 -0.447632
-78.3367 -41.3861 21.4016
-79.314 -40.6935 39.6373
-80.2507 -39.3767 59.0545
-80.6288 -41.6433 80.6417
-80.3339 -40.9836 100.323
-81.0232 -20.1416 -100.342
-80.1461 -19.9555 -80.7031
-80.8293 -19.6445 -60.6666
-80.895 -20.7546 -40.2064
-80.6139 -20.5458 -19.8014
-80.634 -19.0531 0.82702
-81.2945 -20.2003 19.9187
-80.0356 -19.9813 37.6532
-79.7213 -20.3079 60.1705
-79.6713 -20.0941 80.0901
-80.2603 -19.5096 99.3334
-81.1682 0.933257 -99.6596
-78.7707 0.176727 -79.9635
-79.6463 -0.789776 -61.0369
-80.2678 0.174026 -40.805
-79.9311 0.0345342 -19.8537
-80.5395 -0.591429 0.214635
-79.9105 0.0752531 19.6494
-79.6519 0.0275412 39.8976
-80.2671 -0.30318 60.7181
-79.133 0.454204 80.5111
-81.092 0.218444 98.3102
-79.2471 19.8635 -99.4868
-80.0118 18.988 -80.2492
-79.9078 20.2872 -59.8263
-78.2553 19.618 -39.4496
-79.8396 19.9793 -20.3215
-79.6012 19.8033 0.375599
-78.3959 19.7203 20.4174
-80.2757 19.5508 39.0511
-80.4406 19.6266 59.6301
-79.9828 19.6684 78.4021
-79.9342 19.4034 99.7424
-80.9244 39.7165 -99.9111
-79.8018 40.4598 -80.8073
-80.7801 38.7146 -59.91
-79.7573 40.4779 -41.1833
-79.0911 39.8207 -20.9392
-81.0388 39.7555 2.30534
-79.2414 40.8552 19.4017
-79.4546 40.5526 39.8606
-79.9865 40.2752 61.186
-79.9504 40.6624 79.7872
-80.613 39.7869 99.665
-80.474 59.1203 -99.1658
-79.5219 59.8658 -80.6288
-80.861 60.7678 -60.1332
-79.9264 59.8584 -41.3049
-79.7469 58.8215 -20.5463
-79.5662 60.4511 -0.786169
-80.1369 58.8832 19.7862
-80.6629 61.3177 41.3261
-80.0911 59.9846 59.968
-80.2992 58.2525 80.1067
-80.8376 59.8827 99.9124
-81.0015 79.5568 -99.832
-79.3243 79.725 -80.1847
-80.7065 79.9541 -59.6555
-80.1103 81.0202 -39.963
-81.6978 81.6495 -20.8374
-80.9989 78.7164 -0.791844
-79.3116 80.943 19.9132
-79.1273 80.43 39.7602
-80.1881 80.2456 60.2389
-81.2919 80.598 79.502
-79.3946 80.8785 100.542
-79.6975 99.6309 -100.391
-80.3168 99.4911 -80.6094
-79.4556 99.4123 -60.2798
-80.2767 98.1776 -39.9493
-79.5734 98.6619 -20.4125
-81.2943 100.967 0.679502
-79.1584 99.5439 19.7046
-80.7932 100.177 40.5286
-80.378 100.795 60.2064
-80.9246 99.6996 79.0379
-80.7193 99.3949 99.5729
-59.5046 -100.862 -100.264
-60.0324 -101.866 -81.2422
-60.1474 -99.7212 -59.8624
-59.2628 -99.5772 -38.4043
-59.6871 -102.041 -19.6983
-60.488 -98.6641 1.54881
-58.4267 -99.6975 20.351
-58.6276 -100.407 40.4078
-60.4131 -101.467 60.9315
-61.5391 -100.61 80.2298
-59.9832 -99.7054 99.2627
-58.9073 -79.6444 -99.2504
-59.9725 -78.8042 -80.5688
-59.1173 -81.2692 -59.2172
-59.513 -78.9564 -39.2167
-60.7431 -80.6828 -20.496
-59.144 -79.1872 -0.353219
-59.9662 -79.5955 19.3076
-60.6556 -80.9479 39.0487
-60.5017 -79.4839 60.1779
-60.2535 -79.7321 79.7898
-59.2816 -80.5184 99.9923
-60.6233 -60.2181 -100.272
-60.6389 -60.894 -80.8103
-59.4944 -59.4146 -58.7078
-59.79 -59.7669 -39.9893
-60.293 -60.8157 -20.6627
-60.5476 -59.4278 -0.492297
-59.7671 -60.2103 19.4052
-60.7619 -61.4737 40.6215
-60.167 -60.1368 60.0981
-60.662 -61.1211 80.18
-59.7179 -59.9144 99.4475
-59.3049 -40.2472 -99.5093
-60.5429 -39.9515 -79.3544
-58.8731 -39.2118 -61.1452
-59.4629 -40.1025 -41.0417
-60.4743 -38.8462 -20.0621
-59.0833 -39.7728 -0.0759395
-60.7623 -40.2275 19.6458
-60.2662 -40.366 39.1583
-60.7361 -38.9038 60.5738
-59.9981 -39.8109 80.0407
-59.8669 -40.7407 99.108
-59.0979 -20.6869 -101.117
-59.8555 -19.1087 -78.7609
-59.5885 -18.7242 -60.3282
-59.7111 -20.4119 -40.2952
-60.0319 -21.1531 -19.6465
-58.7945 -18.6181 -0.249505
-59.9919 -19.8185 20.7918
-59.6935 -20.3502 40.5693
-59.86 -20.084 60.7108
-59.685 -20.146 78.4724
-60.117 -19.6754 99.3802
-58.9537 0.0931239 -100.32
-60.8016 0.432346 -79.939
-59.7442 -0.0976356 -61.0468
-59.4169 -0.486038 -40.4608
-60.9321 0.725785 -19.8017
-60.2495 -0.0444068 -1.0683
-60.6134 -0.618354 20.3446
-60.3221 0.100163 41.035
-59.822 -0.976255 59.7923
-59.6957 -0.26807 79.5519
-59.6731 0.635084 100.152
-60.5396 20.819 -100.408
-59.5396 21.2978 -80.5009
-59.7581 19.6597 -58.8403
-59.1654 18.4544 -39.7377
-59.5744 20.6964 -20.1039
-59.1303 20.6713 -0.767089
-59.9128 19.7299 20.5104
-60.5051 20.2913 39.6239
-59.1178 21.6455 59.4239
-59.5789 20.1786 79.6618
-58.9902 22.0396 99.5995
-59.8689 39.6122 -100.16
-59.2757 40.8741 -80.121
-59.7877 39.8882 -61.0242
-59.9625 38.8668 -39.2935
-59.5336 39.6025 -20.8392
-59.8258 39.5767 0.54875
-60.8527 38.307 19.3665
-60.6295 39.3934 39.6844
-60.4586 38.9962 59.712
-59.5444 38.5923 80.0128
-59.6583 39.7629 99.813
-58.0071 60.5439 -99.397
-59.7422 59.5006 -79.3081
-59.9263 60.4481 -58.7859
-59.5941 59.9402 -39.5759
-61.0383 59.8315 -19.9173
-59.3973 59.1265 0.060829
-59.3408 59.4044 20.6106
-59.5453 59.3456 40.1998
-60.2613 58.6683 60.0955
-59.8621 60.1791 79.5186
-60.9501 60.8786 100.4
-59.6122 79.6703 -100.56
-60.5018 79.6616 -80.3972
-59.1859 80.4137 -59.7242
-61.4241 80.1199 -41.0643
-59.8334 79.8638 -20.7689
-58.4832 79.8958 0.156936
-59.5704 79.4817 20.201
-59.7172 80.1285 39.9155
-60.2212 79.8156 59.9503
-59.3345 80.6734 79.2548
-60.0351 80.8084 99.5619
-59.6875 101.249 -99.3064
-59.5707 101.006 -81.0205
-59.1669 98.8978 -59.0968
-60.0553 99.5681 -39.5847
-58.833 101.137 -19.9408
-59.7266 100.083 0.369564
-60.3162 100.079 19.3342
-60.1239 99.9626 39.1225
-60.1799 99.5038 60.3302
-60.1633 101.176 80.1172
-59.6154 100.522 99.2049
-39.9466 -100.065 -99.8485
-40.6215 -101.432 -81.3452
-39.4839 -99.4046 -59.96
-39.4145 -99.3431 -39.5421
-39.2123 -99.7594 -21.159
-38.732 -100.089 0.418765
-40.9015 -99.8297 20.9892
-40.5711 -99.5879 38.9519
-40.5629 -98.8387 59.1508
-39.4381 -99.9259 79.7172
-39.4262 -99.5718 99.1348
-40.2583 -80.1852 -99.1881
-40.5299 -80.203 -80.0308
-39.754 -80.3249 -60.0779
-40.6802 -80.0795 -39.9021
-40.6182 -78.7118 -20.0731
-39.7873 -79.9531 -0.776652
-39.4774 -80.0206 18.6911
-40.0583 -80.1696 38.373
-38.8988 -80.702 59.1653
-39.2326 -80.0984 78.239
-40.4205 -79.735 99.8208
-39.6633 -60.24 -99.7908
-40.7708 -60.2162 -80.4747
-39.374 -59.0948 -61.4246
-39.5235 -61.2159 -40.9209
-40.4939 -59.6663 -20.1361
-39.8883 -60.2746 -0.314014
-39.4224 -61.449 19.3614
-39.5034 -59.0122 39.8885
-41.2358 -59.6488 59.2202
-40.1472 -60.3682 81.3952
-40.9796 -59.7195 99.1103
-40.4543 -40.6123 -100.403
-39.8386 -39.4668 -79.5872
-39.2132 -40.1431 -59.59
-39.1657 -41.1458 -41.7275
-40.7667 -40.3546 -19.385
-39.6214 -40.3627 -0.102367
-39.5543 -39.8108 20.0365
-40.8975 -39.4428 40.5124
-39.4323 -40.2026 59.9236
-40.9389 -40.7858 80.2238
-39.4667 -38.7467 100.118
-39.6848 -19.4998 -98.4974
-41.6865 -19.9651 -79.9606
-40.1048 -18.8702 -59.9369
-40.6572 -19.9103 -40.3047
-39.8718 -20.1778 -19.2712
-40.0802 -19.2614 0.171119
-41.3207 -19.2443 19.5529
-40.4344 -19.7741 40.3263
-40.4398 -19.461 61.064
-39.207 -20.2823 81.4197
-39.5134 -21.4985 100.085
-40.7011 -0.434833 -100.395
-39.5011 -0.521055 -79.7748
-39.2273 1.91309 -60.785
-39.7581 -0.250757 -40.1562
-40.1309 -1.41585 -20.5405
-39.8478 -0.416506 -0.217075
-41.2102 0.665857 19.1229
-41.0658 1.0923 40.2105
-41.2536 0.169231 60.5605
-39.4156 -0.640328 81.083
-39.5315 1.29055 101.898
-40.2407 19.3361 -100.052
-40.0121 19.4136 -80.6521
-39.0357 17.5093 -60.5268
-39.8964 19.7399 -39.4492
-39.3461 19.637 -20.4187
-40.9014 20.2904 1.42558
-39.8845 20.2099 19.4088
-39.7728 19.1408 40.1056
-38.4113 19.2267 59.4186
-39.3308 19.6965 79.6361
-41.2434 20.2111 99.5405
-39.2588 39.8224 -99.6041
-40.4563 40.0635 -80.2321
-39.2345 39.5504 -59.8267
-39.575 40.6483 -39.4829
-40.2238 40.5618 -19.8612
-39.7166 40.491 -0.267924
-39.1194 40.7265 20.0793
-38.571 40.3072 40.782
-41.1908 38.382 61.4995
-40.3555 40.3159 79.593
-41.5044 41.3488 99.4549
-39.0674 59.8219 -100.759
-39.9833 61.5452 -80.8575
-40.7592 59.4037 -59.2704
-40.4367 59.3217 -39.9549
-39.5268 59.2154 -20.1412
-39.2514 59.538 -0.346264
-40.405 60.4012 18.9033
-39.3454 60.0446 39.3371
-40.9329 59.8114 59.5015
-41.2892 60.2961 79.7622
-40.7449 60.0072 98.9076
-40.0538 80.3664 -98.7027
-41.301 80.376 -79.7214
-39.6948 79.7437 -60.449
-39.7847 79.5338 -39.8304
-41.1232 79.779 -20.1907
-41.1946 78.9568 -0.358447
-40.0043 80.8644 18.9991
-38.7542 79.9942 40.5937
-40.3727 79.5514 59.2088
-40.3324 79.4752 81.2135
-39.9442 81.3948 100.095
-39.5997 100.582 -99.6187
-40.525 100.451 -79.9226
-39.8234 100.39 -59.8194
-39.316 100.739 -40.5561
-40.4156 100.243 -20.0534
-40.4469 101.382 0.703131
-40.1551 99.8044 19.9202
-39.5703 99.989 40.2695
-40.9094 99.1407 60.1473
-40.0103 101.144 80.4171
-39.8477 99.8117 100.43
-19.8367 -99.2946 -99.7168
-20.457 -100.814 -81.0738
-19.7773 -100.454 -59.8682
-18.7441 -100.282 -39.5525
-19.2883 -100.776 -20.4195
-21.2567 -100.773 0.448078
-20.7895 -100.685 20.0736
-20.6914 -100.049 39.4309
-20.9035 -99.2911 58.1713
-20.8346 -99.6584 80.209
-19.3355 -100.353 99.5334
-20.5521 -80.2343 -99.3371
-20.1958 -79.0112 -80.5845
-19.6631 -79.411 -59.9991
-19.2662 -81.0864 -38.802
-20.693 -79.6746 -20.7778
-19.0964 -80.131 -0.204512
-19.9289 -79.8298 20.5049
-19.7147 -79.4709 41.8464
-20.0481 -80.4002 60.5525
-21.1302 -79.4935 80.8662
-19.6511 -80.847 99.5732
-20.0007 -59.1144 -100.009
-19.9589 -60.9425 -80.4706
-19.0974 -60.4663 -60.381
-19.7988 -59.9133 -40.3363
-19.4643 -60.2365 -20.2073
-19.5247 -59.7583 -1.11304
-20.5687 -59.7097 19.9779
-20.6808 -59.9744 40.4945
-20.9213 -60.5255 61.3422
-18.9882 -60.1728 80.5771
-20.3266 -59.3095 100.646
-20.675 -39.3476 -100.172
-21.3613 -38.8458 -80.2325
-20.3322 -40.3354 -60.2
-20.4762 -40.733 -39.1419
-20.2566 -40.2429 -19.5749
-19.8248 -39.745 -0.290349
-19.3519 -39.0614 20.2976
-20.2946 -39.7238 40.4743
-21.5603 -39.2838 61.177
-22.5973 -39.0215 79.8812
-18.0614 -40.4748 100.164
-20.49 -20.0266 -100.17
-19.8718 -20.3829 -80.0979
-19.6105 -19.5273 -59.1496
-19.8029 -20.7621 -41.0875
-19.4779 -20.7202 -20.3245
-20.4413 -20.3772 -0.587019
-20.7474 -19.8507 19.9988
-19.4149 -19.6029 39.0451
-19.5673 -18.8242 59.4144
-19.4767 -19.6268 79.0726
-18.8688 -19.8569 99.4544
-20.6051 -0.746323 -99.827
-19.858 0.328456 -80.4283
-20.5483 0.06133 -59.7573
-20.3745 0.474594 -39.7589
-18.3116 1.55674 -19.9858
-21.0718 0.424152 -0.390911
-18.6662 -1.21273 19.8788
-19.6862 -1.10344 39.6289
-19.1557 0.375972 60.1095
-19.1508 -0.572744 80.688
-19.8166 -0.393389 100.072
-19.7655 20.2754 -99.6429
-20.3528 19.7467 -80.6137
-20.2743 19.0476 -61.0555
-19.7662 20.3383 -40.6892
-19.8816 20.4805 -19.9791
-20.4919 21.1078 -0.223215
-20.1788 19.6121 21.2683
-19.8723 19.5189 39.1849
-19.1923 19.9454 59.2036
-19.8477 20.7765 81.4519
-20.7967 20.014 98.7771
-19.0512 40.4347 -99.4117
-20.6558 40.5717 -80.7377
-20.1027 39.3188 -60.0302
-20.2067 40.1946 -39.212
-19.2366 41.2909 -20.2673
-21.6938 39.3985 0.732691
-19.3269 41.4361 19.5859
-20.0892 39.4203 39.44
-18.6322 39.8799 58.9221
-18.6462 39.071 80.2379
-20.0952 39.8822 99.9344
-20.2884 60.5847 -99.2487
-19.8053 59.4089 -78.9266
-20.8168 59.8015 -59.2629
-19.0134 59.7457 -39.2186
-21.1348 59.8092 -21.5221
-19.9121 59.1296 1.06006
-21.6299 59.9022 19.9326
-20.407 58.2597 41.1185
-19.8324 60.804 60.8122
-19.8359 59.8253 79.8791
-20.205 60.1025 100.674
-21.4813 80.5605 -99.1152
-19.9386 80.0285 -80.0321
-19.6061 80.0349 -60.9576
-19.2955 80.5834 -38.3968
-20.269 79.3612 -19.8229
-19.6478 79.5655 -0.765716
-19.1901 80.0005 20.1731
-20.9752 79.4443 39.9523
-20.6019 79.7111 59.8202
-19.7837 79.9839 79.7947
-20.5433 80.7709 99.6215
-19.6605 99.5143 -100.864
-20.9686 99.0215 -80.1787
-19.1656 97.6737 -59.9077
-19.6073 100.174 -40.3617
-19.162 100.026 -19.6827
-20.2535 100.402 0.814413
-20.7317 99.8838 20.3986
-19.3319 99.0032 39.8554
-19.4319 98.7097 60.878
-19.8489 99.7801 79.6701
-20.2826 98.6139 101.071
0.127125 -99.6741 -98.8624
-0.716891 -99.7988 -79.8742
0.00280953 -99.3458 -60.9702
-0.406051 -100.68 -40.6971
0.866326 -100.397 -19.5126
-0.89533 -98.9503 -0.0833932
0.11788 -100.852 19.599
-0.100614 -99.1043 39.7016
0.567474 -99.5502 60.4631
0.463588 -100.667 80.6667
0.867903 -99.7981 99.8315
0.351741 -80.3091 -99.9993
-0.859731 -79.2797 -79.4062
-0.601244 -80.6739 -60.2313
0.667906 -80.0367 -40.3534
-0.314266 -80.0501 -21.6293
0.625022 -79.3397 0.44211
-0.426063 -80.131 19.0796
0.195026 -79.6405 39.9156
1.62427 -80.2983 60.5297
0.181198 -80.4112 80.1761
0.11851 -80.0699 100.108
2.12257 -58.8343 -100.961
-0.432646 -59.153 -79.6733
0.116187 -60.3384 -59.1505
0.200438 -60.1181 -39.7797
-0.486024 -59.7106 -19.6511
0.97559 -58.6902 0.319748
-0.915176 -59.9507 19.774
0.190171 -58.478 39.5228
-0.61924 -59.2302 60.724
-0.819309 -59.9171 79.3096
-2.0484 -60.233 98.5745
0.179772 -39.4299 -100.002
-0.961698 -40.2727 -80.4076
0.759768 -39.415 -59.0246
0.35115 -39.5172 -41.1022
-1.28218 -40.2664 -19.1469
1.25691 -40.9943 -0.979633
-0.401408 -39.6435 19.9459
0.472417 -39.5096 39.4489
0.753817 -40.4413 60.1931
0.195063 -39.7672 80.2398
0.0396033 -40.1641 98.4159
-0.158371 -19.4676 -99.6472
0.286896 -18.7137 -79.5606
0.0263492 -20.4154 -59.5351
1.13773 -19.7002 -40.1499
0.273892 -20.873 -20.2165
-0.156289 -20.8045 1.39611
-1.31451 -21.4487 20.1177
-0.27695 -20.3391 39.9344
-1.25988 -19.6221 59.5011
0.79192 -20.1581 80.3081
0.57868 -20.6546 99.016
-0.285496 0.190518 -99.57
-0.646064 -0.429572 -80.3788
-0.25506 -1.20859 -59.3552
0.316122 -0.468961 -40.5913
0.122931 -0.158169 -19.362
-0.402319 1.27329 -1.08166
-0.665445 -0.751429 19.0892
-0.0203288 0.0392338 41.2848
-0.707937 -0.266661 59.2141
-0.166032 0.271161 79.611
0.136375 1.54702 99.1511
-0.0167125 19.6693 -99.4476
0.62788 19.584 -79.4175
-2.00667 20.3255 -60.4423
-0.471395 21.1436 -40.71
-0.114207 20.4085 -19.8471
0.501864 20.3294 -0.53284
0.285707 19.3557 20.2885
0.269137 19.1725 40.04
-0.416396 19.5523 60.4215
0.479331 20.4303 80.2644
-0.392341 19.9773 99.2557
-0.214516 40.0688 -99.9212
2.34323 39.124 -81.4925
0.143099 40.1139 -59.5611
-1.58826 39.7664 -39.533
-0.424883 39.8537 -19.8303
0.443035 40.4781 0.597092
0.994697 41.0803 22.0121
0.385633 40.683 40.5798
-0.399156 41.616 60.101
-0.422561 40.0261 79.3096
1.34825 40.4675 99.6635
0.551611 60.3827 -100.19
-0.0112141 60.782 -80.1724
-0.566603 57.9427 -59.3631
0.0827892 60.9544 -40.3833
-1.08118 60.0215 -18.6222
-0.162131 60.7301 0.836589
-0.234322 59.8808 18.5722
0.621466 58.0317 39.8537
0.186269 59.3979 59.4046
0.831757 59.13 78.9856
0.333491 60.0851 100.212
-1.79125 79.8233 -100.17
-0.116581 81.0383 -81.1465
-1.30462 79.3604 -59.5095
0.756186 79.3966 -39.3373
-0.986443 79.7732 -20.2369
0.556066 79.0139 -0.242632
0.0386458 79.5189 20.9118
0.497577 79.8169 39.7208
-0.343082 79.5119 60.9875
-0.297449 80.9783 78.7397
0.148131 79.914 99.8053
-0.802966 100.542 -99.2319
-0.0406683 100.039 -80.6934
-0.997442 100.793 -59.4629
0.195901 99.7294 -39.9641
-0.741086 100.012 -19.3037
-0.367102 100.937 0.648654
-0.0134514 100.602 21.3154
-0.286974 100.268 40.7701
0.730555 100.058 59.4657
-0.119143 100.18 80.3391
-0.457335 99.941 101.602
19.681 -100.52 -100.079
20.2673 -100.605 -79.2852
20.2819 -99.7903 -59.4971
19.9609 -100.218 -39.0956
19.8453 -101.011 -18.2863
19.8747 -99.2179 -0.238269
19.5502 -99.6316 20.0615
20.3815 -100.522 41.3988
20.0173 -100.648 61.098
20.2313 -99.7425 79.7638
20.5694 -100.444 100.189
19.9924 -80.604 -101.632
19.0723 -80.3577 -79.2795
19.701 -80.1879 -60.1083
19.3096 -79.0422 -40.2194
19.9998 -80.8998 -19.6257
21.1026 -80.3924 0.447429
19.4679 -79.8192 20.7054
20.429 -79.8079 39.0024
20.1334 -80.5074 60.6271
20.3255 -79.7678 80.4686
19.9784 -79.1686 100.278
20.2218 -61.0574 -99.219
17.8775 -60.1873 -78.9468
21.4865 -60.3377 -61.6897
18.1312 -59.616 -39.8925
19.1875 -60.1125 -20.0263
20.7779 -60.6764 -0.324228
20.2688 -60.7258 20.1489
20.5094 -60.0162 41.0431
18.5506 -60.2808 59.4495
21.2878 -61.0853 80.0275
19.4585 -60.3091 100.31
18.809 -39.3483 -100.383
19.3851 -39.8085 -79.3039
19.1049 -39.255 -60.4356
19.5889 -39.5957 -40.2029
20.6087 -39.7574 -19.3493
18.5828 -40.4993 0.581975
20.6666 -40.8974 21.1319
20.1275 -40.4719 39.9914
20.6797 -40.1524 60.0591
20.2686 -39.2484 79.1857
20.2377 -40.2686 99.9345
20.5635 -19.3112 -99.6651
20.2142 -21.0377 -80.0644
19.3987 -20.3517 -60.2635
20.127 -19.5687 -40.9548
19.0762 -20.0022 -19.353
20.2074 -20.6518 0.159932
20.2349 -20.0147 20.2275
20.8341 -19.8168 39.9112
19.0311 -18.7078 60.1687
19.8055 -20.0109 79.7709
20.1195 -19.1275 100.289
19.8001 -0.173548 -99.0655
19.4357 0.860292 -80.5946
18.2778 -1.74231 -61.17
20.6935 0.597104 -39.338
20.3572 -0.359231 -21.0279
20.4148 1.5673 -0.562053
20.5527 0.245901 20.0958
20.3667 -0.620818 38.7956
21.1718 0.523447 58.5774
19.0601 -1.38577 79.9047
20.4083 0.249918 98.8131
21.017 19.5475 -99.515
19.8856 20.2324 -79.7616
19.5832 19.7826 -59.079
19.6662 20.5721 -41.5064
20.0047 20.3437 -19.0736
21.0224 20.5871 -1.42916
20.5307 19.3832 20.1777
20.7199 19.8485 39.4608
19.5982 20.0758 59.5257
19.9489 19.7321 79.3173
19.5471 19.8584 100.333
19.8446 39.4892 -99.9752
19.7935 39.7906 -79.0359
20.5735 39.6865 -59.9964
19.7913 40.1972 -40.8448
20.9154 40.2221 -19.4151
20.121 40.9554 0.621384
20.6015 38.9206 21.4095
21.1901 40.0296 42.2749
20.2375 39.3879 60.106
19.8194 40.2365 79.2392
20.9451 39.197 99.8193
18.2149 60.8151 -100.415
20.3333 58.9846 -79.7776
20.809 58.8098 -60.5929
20.4497 59.6247 -40.6322
18.293 59.624 -19.1197
19.7643 59.7188 0.0676155
20.062 60.3131 19.5821
19.4705 59.2726 39.5598
19.6771 59.6339 60.5335
19.6029 60.0267 80.4955
21.6057 60.5866 100.724
19.4014 79.5484 -100.496
19.3154 79.1495 -81.8542
19.8589 79.4744 -59.8478
20.0019 78.6192 -39.813
19.6641 80.8321 -20.7469
20.4198 78.755 1.79458
21.0068 80.178 19.4961
20.9548 79.5578 39.3848
20.0744 78.6436 59.9921
20.4902 79.4516 80.2404
18.7553 80.2008 100.077
20.1562 100.006 -99.9564
21.1667 101.338 -79.4148
18.9552 99.2632 -59.003
20.4968 100.225 -39.8816
21.0626 100.315 -21.6203
20.185 100.563 -0.62242
19.4988 99.0136 19.7551
19.5048 100.168 40.0197
19.9633 98.7921 59.9853
19.7881 99.7893 79.3661
20.6313 99.7132 99.7412
39.8341 -100.697 -99.6946
38.9027 -101.019 -80.6654
39.4552 -100.381 -58.3348
39.5747 -100.066 -39.8569
39.9462 -99.0311 -18.6831
39.9233 -99.9403 -0.56946
39.4013 -99.5022 19.9029
39.3441 -99.3888 39.5099
40.6157 -99.826 58.9458
39.3109 -100.693 79.7718
40.2601 -99.8571 98.7004
39.5555 -80.7188 -99.8155
39.725 -79.7775 -80.5208
39.5782 -79.1194 -58.8194
39.6911 -79.5825 -40.893
40.622 -80.5825 -20.4413
40.5908 -80.5457 -0.191507
39.9208 -79.7537 20.5832
40.9323 -79.578 40.3967
40.2327 -79.9183 60.5296
39.5675 -80.2036 80.7842
38.4259 -79.9531 101.038
39.4843 -60.5634 -100.569
41.1972 -59.9277 -81.2459
39.2677 -60.6828 -60.2901
39.9313 -59.9162 -41.4002
39.9853 -60.2701 -20.9566
39.9481 -58.6107 0.864374
40.6038 -60.0876 19.5169
40.6746 -59.8844 39.6404
39.976 -59.4307 60.4813
39.9834 -60.5439 79.223
40.9313 -60.0108 99.6601
40.2823 -39.906 -100.055
40.4177 -40.2329 -80.5513
39.9104 -39.8025 -60.1077
39.5893 -40.4151 -39.3355
40.0252 -39.9607 -20.0566
39.6924 -38.6365 0.422435
38.5087 -40.2669 20.2963
39.6969 -39.108 38.6677
39.4679 -39.506 60.9712
39.4323 -38.3736 80.0893
39.9734 -40.3752 101.276
38.4832 -20.1647 -99.5372
39.9918 -19.857 -78.4339
40.327 -20.2624 -60.6657
40.2939 -20.5676 -39.9631
40.0061 -19.2841 -18.9356
41.0971 -20.1922 -0.00422489
41.0287 -19.8236 19.265
39.5069 -20.2516 38.6225
39.8144 -21.1445 58.795
40.5948 -19.426 79.9092
40.206 -19.5422 99.8458
40.4385 0.788677 -99.1367
39.944 -0.0546375 -80.9235
40.1291 0.963407 -58.6976
39.3511 1.19906 -39.3084
39.919 -1.17285 -19.5459
40.1852 -1.85155 0.707831
40.5055 -0.622051 19.5827
40.5029 0.0168829 40.4211
38.9362 -0.155317 60.0656
40.4356 0.170924 80.2856
39.4662 0.801473 100.156
38.8916 19.0462 -101.259
40.0181 19.9472 -79.9779
39.1235 18.8757 -60.548
40.6926 19.3241 -40.2703
39.7395 18.3222 -18.8825
40.1294 20.5768 0.237402
39.8677 18.7641 20.5836
41.464 21.5633 39.1716
40.9968 19.6823 60.5411
41.2148 19.9745 80.8951
39.7479 19.6967 100.454
40.8969 40.9119 -99.6774
40.2496 39.538 -80.558
39.2192 39.4374 -60.2236
38.8891 39.7173 -40.1503
40.6655 40.638 -18.7947
39.5329 39.5357 0.910503
39.0161 39.5632 20.174
38.728 40.8588 39.0916
39.3439 40.6621 58.6466
41.5979 40.7393 80.0434
39.5445 40.5265 97.7927
38.7846 59.4484 -99.9531
39.9668 59.9014 -78.8752
40.443 60.3907 -61.3842
39.8246 59.1678 -40.2821
39.2013 59.4071 -20.3651
38.9261 59.4947 0.861591
40.2948 60.214 20.5418
39.5916 60.6809 40.0389
41.1963 58.6465 59.2925
40.0182 60.43 80.6545
40.7235 60.235 101.014
41.9151 79.5948 -99.5676
40.187 80.5931 -81.0747
39.1464 80.3415 -60.9015
39.8272 79.5134 -39.697
40.0477 79.6383 -20.705
40.5957 79.039 -0.602446
40.326 80.0089 20.0741
40.0709 79.7991 39.1895
40.3113 81.3987 60.561
38.1978 78.8059 80.602
40.4802 80.2485 100.702
39.9885 100.345 -99.3192
39.3148 100.122 -80.1382
40.1703 99.7567 -60.5979
40.6754 101.083 -39.744
39.443 99.611 -21.3123
40.0346 101.1 0.411786
40.0368 99.7724 20.7389
41.1427 100.726 39.3771
40.1059 98.022 60.8181
41.2612 100.578 79.9075
39.9524 99.8949 101.335
59.7661 -100.398 -101.443
60.293 -100.012 -80.4362
60.9842 -99.6919 -60.5252
58.5392 -99.8426 -39.3307
59.1286 -100.171 -21.5581
59.6671 -101.588 0.313342
60.0353 -99.6574 19.5896
60.7676 -100.697 39.068
60.7156 -99.3407 59.2442
59.4377 -100.21 80.9506
60.5201 -101.06 100.428
59.8359 -79.7871 -101.344
60.2426 -79.7333 -81.2348
60.2403 -80.8028 -59.9335
59.9346 -80.0979 -40.7943
59.8222 -81.1644 -20.6255
59.4979 -79.4021 0.285984
60.2585 -80.8653 20.2989
59.9831 -81.0503 40.1631
59.7798 -79.9748 60.2637
60.2954 -79.2499 79.9077
60.3294 -81.3551 99.2666
59.8814 -58.8376 -99.9455
59.6203 -59.6573 -79.2023
59.5753 -59.8148 -61.0883
59.4718 -60.0188 -39.7033
59.5363 -59.2239 -19.9209
59.5682 -59.337 -0.731597
59.8344 -60.7737 19.7913
59.7889 -58.0862 40.1687
61.5931 -59.7094 60.5042
60.7787 -60.1129 80.2894
59.682 -60.9311 101.054
60.3395 -39.0492 -99.2804
60.3772 -39.9158 -80.4898
60.5721 -40.2671 -60.1258
60.2999 -39.378 -39.9127
61.0482 -39.6849 -21.2345
59.9185 -40.6389 0.201011
60.9153 -39.2072 21.4782
59.2657 -40.5551 39.7401
60.101 -38.8721 58.8144
58.8707 -40.6442 79.3273
59.5108 -39.0172 99.167
60.2572 -20.7865 -99.8929
60.0541 -20.0082 -80.3533
59.5555 -19.478 -59.4171
60.4214 -20.127 -40.6127
59.4833 -20.7054 -20.8131
60.7255 -18.9336 0.519607
59.33 -20.449 20.9285
60.7052 -20.2106 39.6855
59.3236 -21.5072 60.4872
59.8041 -20.543 79.4209
58.9872 -20.8064 98.7243
61.0875 -0.899786 -100.14
61.2756 -0.620663 -80.0482
59.5405 -0.266286 -61.921
59.6885 -0.283636 -40.2799
59.2661 0.917719 -20.1614
59.3534 0.792185 0.57038
60.27 0.657715 20.9723
59.2497 -0.175207 39.7724
59.9365 -0.829622 60.0593
60.0675 0.323108 80.1604
60.6793 0.95015 100.451
60.3631 20.6724 -99.6413
59.6986 20.5103 -79.5817
59.461 19.8113 -59.5508
58.9167 19.6516 -38.9861
60.9618 20.1796 -19.009
59.6409 19.4655 1.16917
59.2029 20.0934 20.2692
60.0481 20.5851 40.4377
59.0734 20.6512 60.8449
58.7254 18.7761 80.7288
59.2857 19.7286 100.546
59.4401 40.134 -101.54
60.5372 39.9633 -80.0316
59.3435 40.1959 -59.8455
59.5051 40.8413 -40.9198
59.9058 39.5317 -20.3848
59.3155 40.1205 0.511344
60.3389 38.8508 20.0392
59.8405 41.3358 40.0199
60.5456 40.1595 59.7293
59.785 39.611 81.0533
59.4093 40.0175 100.347
60.4297 61.8825 -100.304
59.6368 59.9964 -80.04
59.6588 60.9274 -58.6311
58.9424 60.0191 -39.8086
60.1308 60.6186 -18.959
60.8038 60.1866 0.515653
60.7395 61.5258 19.9836
60.6515 59.2579 41.1364
59.8282 60.0787 60.0867
59.2736 61.2119 79.1445
59.8664 59.7443 100.12
60.1751 79.5721 -100.234
60.3902 80.2153 -80.5722
58.9209 79.3143 -60.6338
59.8381 80.3832 -39.1141
60.2915 80.1558 -20.4075
59.9776 79.7395 0.215101
61.1996 79.5382 20.123
59.4609 79.1031 40.9967
59.6867 79.8059 60.3428
60.8441 79.4862 81.0752
60.0599 79.8101 98.897
59.9914 100.324 -100.466
59.8305 101.171 -79.8172
59.7232 100.902 -61.487
59.0348 99.4937 -40.1754
59.4547 99.9999 -19.2823
60.55 100.532 0.5359
59.1931 99.8961 19.7723
58.7165 99.73 39.4513
59.7204 98.693 59.6902
60.1041 99.1885 79.7035
60.5248 100.522 100.217
79.1907 -100.082 -100.837
80.764 -100.875 -79.9314
80.7811 -99.27 -60.6529
78.2157 -101.027 -40.0299
79.8027 -99.221 -20.8916
80.1158 -99.5333 -0.712417
79.9097 -99.705 19.5824
80.3061 -101.03 40.47
79.9748 -100.998 58.8882
80.0775 -99.58 79.227
79.445 -100.6 100.662
79.9563 -79.759 -99.632
78.5869 -79.7098 -79.9463
79.9654 -80.3553 -59.935
79.2448 -79.7915 -40.6317
79.1106 -79.7373 -19.8246
79.7659 -78.3089 0.210706
79.2276 -79.3422 19.2422
79.8271 -80.2692 40.4229
79.4962 -79.9786 59.8919
79.9822 -79.4189 80.1134
79.4989 -80.4584 100.278
80.5194 -60.7628 -101.086
80.3831 -59.772 -80.097
81.4148 -59.7516 -59.6269
79.732 -60.2047 -40.748
81.2178 -59.7944 -19.1521
80.3022 -59.8354 0.543764
80.1586 -60.2968 19.2365
80.7991 -59.8785 39.7883
80.3973 -60.9219 60.3585
79.3476 -60.0448 80.9606
78.9921 -59.5857 100.463
80.096 -40.4268 -99.0282
80.3506 -39.9196 -79.9641
79.2756 -38.8757 -59.2203
80.2174 -39.3474 -39.3083
78.985 -40.3045 -20.0434
80.3189 -41.5177 -0.678741
79.0136 -39.9425 19.4786
80.9006 -40.1498 39.401
80.8704 -40.4474 60.1219
79.8794 -40.0966 78.6574
80.7776 -40.2011 100.531
80.7505 -22.0184 -99.9689
79.7792 -20.8545 -79.7732
80.0152 -19.9592 -59.496
80.1374 -19.0901 -40.5004
79.4163 -20.0278 -20.2204
81.4194 -19.4909 0.0703814
79.0771 -20.0816 19.8311
81.3008 -20.0521 40.8638
78.6503 -20.2089 60.8514
78.4089 -18.9785 80.3325
80.5436 -20.0228 99.9611
80.9667 -0.437893 -100.033
79.7265 0.406496 -80.4399
77.8877 -0.240652 -60.4393
79.6025 1.59821 -40.0928
79.5664 1.37828 -19.1346
79.0302 0.58758 0.643176
80.6077 0.524578 20.5269
79.2535 -0.202155 39.6546
79.428 0.717652 60.7589
80.2498 0.097267 80.087
80.1526 1.01868 100.326
79.8757 19.4485 -100.074
81.3756 21.2166 -80.4345
79.6777 21.0109 -60.2772
80.6964 19.9816 -40.6168
79.505 19.8218 -19.0747
79.3264 19.6316 0.530654
81.1842 19.442 20.1843
78.6688 19.5812 40.0015
80.2771 20.9983 61.3314
80.2771 21.267 80.1413
79.4305 20.7563 98.3994
80.4409 39.8447 -101.222
80.0094 39.968 -79.7623
79.9612 41.7935 -59.4689
81.4095 39.73 -40.4568
79.5953 39.1491 -19.8833
80.0626 41.1008 -0.780112
80.4264 39.6341 19.0427
81.0031 41.092 38.6322
80.7637 40.1732 59.2663
79.8085 40.3409 79.3743
80.5138 40.9529 100.094
79.8731 60.1568 -99.6219
79.4558 58.2015 -79.7163
78.9909 60.5936 -58.1716
80.2274 60.236 -40.5537
80.9645 59.6566 -19.4629
79.6297 59.8416 -1.54927
79.916 60.2956 20.2225
79.665 58.7369 40.0822
81.0298 59.1558 59.2864
80.0325 59.6785 79.7942
78.3629 60.0232 99.6336
80.4206 80.845 -100.58
79.756 79.4726 -80.1223
80.1271 80.9039 -61.0268
80.1623 79.8305 -39.9527
80.5021 80.4874 -20.6518
80.9492 79.6655 -0.892068
80.3435 77.9127 21.8473
80.4176 79.039 40.5969
80.9763 80.4512 60.8114
80.3152 79.4394 78.9618
79.9156 79.8014 100.167
79.7895 100.363 -101.023
80.0669 99.6199 -80.0261
79.9101 100.388 -60.1277
79.153 99.1409 -40.2305
79.6659 100.382 -20.3745
81.2209 99.3195 -0.27696
79.0971 99.6817 20.9369
79.2582 99.9419 39.8909
79.2693 100.924 60.7047
79.5365 100.833 79.4938
80.3385 101.121 100.002
99.7249 -99.7849 -99.7536
100.96 -99.2903 -80.3348
98.8355 -98.9024 -58.9678
100.058 -99.2971 -40.238
100.093 -100.93 -20.8889
100.151 -99.6239 0.396259
100.747 -101.747 18.9601
99.4278 -99.5617 40.8866
98.3645 -99.3277 59.5676
99.7614 -99.6302 79.2252
99.9044 -99.8238 99.8559
99.8748 -79.1932 -99.1924
98.6762 -80.1725 -79.8962
99.8735 -80.3511 -59.3065
101.457 -81.4156 -40.905
98.7652 -79.4615 -18.5629
99.0692 -80.8187 -0.504291
100.755 -80.3669 19.9543
100.478 -79.9024 41.2
100.316 -80.4373 59.1519
101.06 -79.138 80.1711
101.5 -80.7082 100.641
100.695 -60.3784 -99.6037
98.6201 -61.7766 -80.1754
99.2206 -59.8071 -61.7006
99.9862 -61.3001 -39.4771
99.5821 -59.5615 -20.3026
98.8768 -59.9843 0.946767
100.957 -59.5101 19.2648
100.246 -58.9143 38.9004
100.614 -61.067 58.9575
99.807 -59.2265 80.1478
100.805 -60.0458 99.9213
100.437 -40.7391 -100.187
99.8795 -39.7428 -80.6103
100.566 -39.967 -59.223
99.3193 -39.7722 -38.4652
100.326 -40.3074 -19.9438
99.6201 -41.5425 0.237524
99.8552 -39.9015 20.4554
100.829 -40.7356 40.0047
101.58 -39.4675 59.2132
99.1499 -39.6241 79.9728
100.073 -39.3795 99.4484
99.0057 -20.4049 -98.8553
100.35 -20.2288 -80.3326
101.517 -18.9283 -59.6463
99.506 -19.7765 -39.8174
100.339 -18.1733 -19.171
100.058 -20.4459 -0.921775
99.2731 -20.8952 20.4754
99.5655 -19.6367 40.3361
101.445 -19.9692 59.6347
100.326 -19.6604 80.1671
100.078 -20.4929 100.539
99.8472 1.02891 -99.9492
100.225 -0.433815 -79.3541
99.0161 -0.443635 -59.74
100.242 -1.89599 -39.9956
101.188 0.109258 -19.7617
98.6534 -0.408247 0.628513
99.9794 -0.232522 20.0088
101.694 0.498146 39.558
100.443 0.884935 59.0467
98.9882 0.354867 80.6321
99.817 -0.0125778 100.536
99.4753 19.5029 -100.296
100.876 19.6458 -79.34
99.4387 20.6738 -59.5633
99.986 19.5391 -40.2608
99.861 20.6851 -20.3638
98.3205 19.8895 1.14255
