ply
format ascii 1.0
element vertex 125
property float x
property float y
property float z
end_header
3.66025 -13.6603 -10.9483
3.66025 -13.6603 -5.94828
3.66025 -13.6603 -0.948276
3.66025 -13.6603 4.05172
3.66025 -13.6603 9.05172
-0.669873 -11.1603 -10.9483
-0.669873 -11.1603 -5.94828
-0.669873 -11.1603 -0.948276
-0.669873 -11.1603 4.05172
-0.669873 -11.1603 9.05172
-5 -8.66025 -10.9483
-5 -8.66025 -5.94828
-5 -8.66025 -0.948276
-5 -8.66025 4.05172
-5 -8.66025 9.05172
-9.33013 -6.16025 -10.9483
-9.33013 -6.16025 -5.94828
-9.33013 -6.16025 -0.948276
-9.33013 -6.16025 4.05172
-9.33013 -6.16025 9.05172
-13.6603 -3.66025 -10.9483
-13.6603 -3.66025 -5.94828
-13.6603 -3.66025 -0.948276
-13.6603 -3.66025 4.05172
-13.6603 -3.66025 9.05172
6.16025 -9.33013 -10.9483
6.16025 -9.33013 -5.94828
6.16025 -9.33013 -0.948276
6.16025 -9.33013 4.05172
6.16025 -9.33013 9.05172
1.83013 -6.83013 -10.9483
1.83013 -6.83013 -5.94828
1.83013 -6.83013 -0.948276
1.83013 -6.83013 4.05172
1.83013 -6.83013 9.05172
-2.5 -4.33013 -10.9483
-2.5 -4.33013 -5.94828
-2.5 -4.33013 -0.948276
-2.5 -4.33013 4.05172
-2.5 -4.33013 9.05172
-6.83013 -1.83013 -10.9483
-6.83013 -1.83013 -5.94828
-6.83013 -1.83013 -0.948276
-6.83013 -1.83013 4.05172
-6.83013 -1.83013 9.05172
-11.1603 0.669873 -10.9483
-11.1603 0.669873 -5.94828
-11.1603 0.669873 -0.948276
-11.1603 0.669873 4.05172
-11.1603 0.669873 9.05172
8.66025 -5 -10.9483
8.66025 -5 -5.94828
8.66025 -5 -0.948276
8.66025 -5 4.05172
8.66025 -5 9.05172
4.33013 -2.5 -10.9483
4.33013 -2.5 -5.94828
4.33013 -2.5 -0.948276
4.33013 -2.5 4.05172
4.33013 -2.5 9.05172
-1.12508e-15 -7.04369e-15 -10.9483
2.97176e-15 -9.57567e-15 -5.94828
7.0686e-15 -1.21077e-14 -0.948276
1.11654e-14 -1.46396e-14 4.05172
1.52623e-14 -1.71716e-14 9.05172
-4.33013 2.5 -10.9483
-4.33013 2.5 -5.94828
-4.33013 2.5 -0.948276
-4.33013 2.5 4.05172
-4.33013 2.5 9.05172
-8.66025 5 -10.9483
-8.66025 5 -5.94828
-8.66025 5 -0.948276
-8.66025 5 4.05172
-8.66025 5 9.05172
11.1603 -0.669873 -10.9483
11.1603 -0.669873 -5.94828
11.1603 -0.669873 -0.948276
11.1603 -0.669873 4.05172
11.1603 -0.669873 9.05172
6.83013 1.83013 -10.9483
6.83013 1.83013 -5.94828
6.83013 1.83013 -0.948276
6.83013 1.83013 4.05172
6.83013 1.83013 9.05172
2.5 4.33013 -10.9483
2.5 4.33013 -5.94828
2.5 4.33013 -0.948276
2.5 4.33013 4.05172
2.5 4.33013 9.05172
-1.83013 6.83013 -10.9483
-1.83013 6.83013 -5.94828
-1.83013 6.83013 -0.948276
-1.83013 6.83013 4.05172
-1.83013 6.83013 9.05172
-6.16025 9.33013 -10.9483
-6.16025 9.33013 -5.94828
-6.16025 9.33013 -0.948276
-6.16025 9.33013 4.05172
-6.16025 9.33013 9.05172
13.6603 3.66025 -10.9483
13.6603 3.66025 -5.94828
13.6603 3.66025 -0.948276
13.6603 3.66025 4.05172
13.6603 3.66025 9.05172
9.33013 6.16025 -10.9483
9.33013 6.16025 -5.94828
9.33013 6.16025 -0.948276
9.33013 6.16025 4.05172
9.33013 6.16025 9.05172
5 8.66025 -10.9483
5 8.66025 -5.94828
5 8.66025 -0.948276
5 8.66025 4.05172
5 8.66025 9.05172
0.669873 11.1603 -10.9483
0.669873 11.1603 -5.94828
0.669873 11.1603 -0.948276
0.669873 11.1603 4.05172
0.669873 11.1603 9.05172
-3.66025 13.6603 -10.9483
-3.66025 13.6603 -5.94828
-3.66025 13.6603 -0.948276
-3.66025 13.6603 4.05172
-3.66025 13.6603 9.05172
