ply
format ascii 1.0
comment created by 3d_to_ply
element vertex 125
property float32 x
property float32 y
property float32 z
property uint8 red
property uint8 green
property uint8 blue
end_header
-10.000000 -10.000000 -10.000000 255 255 255
-10.000000 -10.000000 -5.000000 255 255 255
-10.000000 -10.000000 0.000000 255 255 255
-10.000000 -10.000000 5.000000 255 255 255
-10.000000 -10.000000 10.000000 255 255 255
-10.000000 -5.000000 -10.000000 255 255 255
-10.000000 -5.000000 -5.000000 255 255 255
-10.000000 -5.000000 0.000000 255 255 255
-10.000000 -5.000000 5.000000 255 255 255
-10.000000 -5.000000 10.000000 255 255 255
-10.000000 0.000000 -10.000000 255 255 255
-10.000000 0.000000 -5.000000 255 255 255
-10.000000 0.000000 0.000000 255 255 255
-10.000000 0.000000 5.000000 255 255 255
-10.000000 0.000000 10.000000 255 255 255
-10.000000 5.000000 -10.000000 255 255 255
-10.000000 5.000000 -5.000000 255 255 255
-10.000000 5.000000 0.000000 255 255 255
-10.000000 5.000000 5.000000 255 255 255
-10.000000 5.000000 10.000000 255 255 255
-10.000000 10.000000 -10.000000 255 255 255
-10.000000 10.000000 -5.000000 255 255 255
-10.000000 10.000000 0.000000 255 255 255
-10.000000 10.000000 5.000000 255 255 255
-10.000000 10.000000 10.000000 255 255 255
-5.000000 -10.000000 -10.000000 255 255 255
-5.000000 -10.000000 -5.000000 255 255 255
-5.000000 -10.000000 0.000000 255 255 255
-5.000000 -10.000000 5.000000 255 255 255
-5.000000 -10.000000 10.000000 255 255 255
-5.000000 -5.000000 -10.000000 255 255 255
-5.000000 -5.000000 -5.000000 255 255 255
-5.000000 -5.000000 0.000000 255 255 255
-5.000000 -5.000000 5.000000 255 255 255
-5.000000 -5.000000 10.000000 255 255 255
-5.000000 0.000000 -10.000000 255 255 255
-5.000000 0.000000 -5.000000 255 255 255
-5.000000 0.000000 0.000000 255 255 255
-5.000000 0.000000 5.000000 255 255 255
-5.000000 0.000000 10.000000 255 255 255
-5.000000 5.000000 -10.000000 255 255 255
-5.000000 5.000000 -5.000000 255 255 255
-5.000000 5.000000 0.000000 255 255 255
-5.000000 5.000000 5.000000 255 255 255
-5.000000 5.000000 10.000000 255 255 255
-5.000000 10.000000 -10.000000 255 255 255
-5.000000 10.000000 -5.000000 255 255 255
-5.000000 10.000000 0.000000 255 255 255
-5.000000 10.000000 5.000000 255 255 255
-5.000000 10.000000 10.000000 255 255 255
0.000000 -10.000000 -10.000000 255 255 255
0.000000 -10.000000 -5.000000 255 255 255
0.000000 -10.000000 0.000000 255 255 255
0.000000 -10.000000 5.000000 255 255 255
0.000000 -10.000000 10.000000 255 255 255
0.000000 -5.000000 -10.000000 255 255 255
0.000000 -5.000000 -5.000000 255 255 255
0.000000 -5.000000 0.000000 255 255 255
0.000000 -5.000000 5.000000 255 255 255
0.000000 -5.000000 10.000000 255 255 255
0.000000 0.000000 -10.000000 255 255 255
0.000000 0.000000 -5.000000 255 255 255
0.000000 0.000000 0.000000 255 255 255
0.000000 0.000000 5.000000 255 255 255
0.000000 0.000000 10.000000 255 255 255
0.000000 5.000000 -10.000000 255 255 255
0.000000 5.000000 -5.000000 255 255 255
0.000000 5.000000 0.000000 255 255 255
0.000000 5.000000 5.000000 255 255 255
0.000000 5.000000 10.000000 255 255 255
0.000000 10.000000 -10.000000 255 255 255
0.000000 10.000000 -5.000000 255 255 255
0.000000 10.000000 0.000000 255 255 255
0.000000 10.000000 5.000000 255 255 255
0.000000 10.000000 10.000000 255 255 255
5.000000 -10.000000 -10.000000 255 255 255
5.000000 -10.000000 -5.000000 255 255 255
5.000000 -10.000000 0.000000 255 255 255
5.000000 -10.000000 5.000000 255 255 255
5.000000 -10.000000 10.000000 255 255 255
5.000000 -5.000000 -10.000000 255 255 255
5.000000 -5.000000 -5.000000 255 255 255
5.000000 -5.000000 0.000000 255 255 255
5.000000 -5.000000 5.000000 255 255 255
5.000000 -5.000000 10.000000 255 255 255
5.000000 0.000000 -10.000000 255 255 255
5.000000 0.000000 -5.000000 255 255 255
5.000000 0.000000 0.000000 255 255 255
5.000000 0.000000 5.000000 255 255 255
5.000000 0.000000 10.000000 255 255 255
5.000000 5.000000 -10.000000 255 255 255
5.000000 5.000000 -5.000000 255 255 255
5.000000 5.000000 0.000000 255 255 255
5.000000 5.000000 5.000000 255 255 255
5.000000 5.000000 10.000000 255 255 255
5.000000 10.000000 -10.000000 255 255 255
5.000000 10.000000 -5.000000 255 255 255
5.000000 10.000000 0.000000 255 255 255
5.000000 10.000000 5.000000 255 255 255
5.000000 10.000000 10.000000 255 255 255
10.000000 -10.000000 -10.000000 255 255 255
10.000000 -10.000000 -5.000000 255 255 255
10.000000 -10.000000 0.000000 255 255 255
10.000000 -10.000000 5.000000 255 255 255
10.000000 -10.000000 10.000000 255 255 255
10.000000 -5.000000 -10.000000 255 255 255
10.000000 -5.000000 -5.000000 255 255 255
10.000000 -5.000000 0.000000 255 255 255
10.000000 -5.000000 5.000000 255 255 255
10.000000 -5.000000 10.000000 255 255 255
10.000000 0.000000 -10.000000 255 255 255
10.000000 0.000000 -5.000000 255 255 255
10.000000 0.000000 0.000000 255 255 255
10.000000 0.000000 5.000000 255 255 255
10.000000 0.000000 10.000000 255 255 255
10.000000 5.000000 -10.000000 255 255 255
10.000000 5.000000 -5.000000 255 255 255
10.000000 5.000000 0.000000 255 255 255
10.000000 5.000000 5.000000 255 255 255
10.000000 5.000000 10.000000 255 255 255
10.000000 10.000000 -10.000000 255 255 255
10.000000 10.000000 -5.000000 255 255 255
10.000000 10.000000 0.000000 255 255 255
10.000000 10.000000 5.000000 255 255 255
10.000000 10.000000 10.000000 255 255 255
