ply
format ascii 1.0
comment created by 3d_to_ply
element vertex 50
property float32 x
property float32 y
property float32 z
property uint8 red
property uint8 green
property uint8 blue
end_header
12.284608 16.722435 25.000000 255 255 255
7.954484 19.222429 25.000000 255 255 255
3.624356 21.722432 25.000000 255 255 255
-0.705758 24.222408 25.000000 255 255 255
-5.035921 26.722472 25.000000 255 255 255
12.284608 16.722435 20.000000 255 255 255
7.954484 19.222429 20.000000 255 255 255
3.624356 21.722432 20.000000 255 255 255
-0.705758 24.222408 20.000000 255 255 255
-5.035921 26.722472 20.000000 255 255 255
12.284608 16.722435 15.000000 255 255 255
7.954484 19.222429 15.000000 255 255 255
3.624356 21.722432 15.000000 255 255 255
-0.705758 24.222408 15.000000 255 255 255
-5.035921 26.722472 15.000000 255 255 255
12.284608 16.722435 10.000000 255 255 255
7.954484 19.222429 10.000000 255 255 255
3.624356 21.722432 10.000000 255 255 255
-0.705758 24.222408 10.000000 255 255 255
-5.035921 26.722472 10.000000 255 255 255
12.284608 16.722435 5.000000 255 255 255
7.954484 19.222429 5.000000 255 255 255
3.624356 21.722432 5.000000 255 255 255
-0.705758 24.222408 5.000000 255 255 255
-5.035921 26.722472 5.000000 255 255 255
12.284608 18.722435 23.000000 255 255 255
8.820507 20.722433 23.000000 255 255 255
5.356406 22.722432 23.000000 255 255 255
1.892306 24.722430 23.000000 255 255 255
-1.571795 26.722429 23.000000 255 255 255
12.284608 18.722435 19.000000 255 255 255
8.820507 20.722433 19.000000 255 255 255
5.356406 22.722432 19.000000 255 255 255
1.892306 24.722430 19.000000 255 255 255
-1.571795 26.722429 19.000000 255 255 255
12.284608 18.722435 15.000000 255 255 255
8.820507 20.722433 15.000000 255 255 255
5.356406 22.722432 15.000000 255 255 255
1.892306 24.722430 15.000000 255 255 255
-1.571795 26.722429 15.000000 255 255 255
12.284608 18.722435 11.000000 255 255 255
8.820507 20.722433 11.000000 255 255 255
5.356406 22.722432 11.000000 255 255 255
1.892306 24.722430 11.000000 255 255 255
-1.571795 26.722429 11.000000 255 255 255
12.284608 18.722435 7.000000 255 255 255
8.820507 20.722433 7.000000 255 255 255
5.356406 22.722432 7.000000 255 255 255
1.892306 24.722430 7.000000 255 255 255
-1.571795 26.722429 7.000000 255 255 255
