ply
format ascii 1.0
element vertex 1331
property float x
property float y
property float z
end_header
-9.85666 -9.67296 -15.4537
-9.79966 -9.81826 -13.4598
-9.74266 -9.96356 -11.4659
-9.68566 -10.1089 -9.47201
-9.62865 -10.2542 -7.47811
-9.57165 -10.3995 -5.48421
-9.51465 -10.5448 -3.49031
-9.45765 -10.6901 -1.49641
-9.40065 -10.8354 0.497486
-9.34365 -10.9807 2.49139
-9.28664 -11.126 4.48529
-9.93979 -7.68014 -15.3061
-9.88279 -7.82545 -13.3122
-9.82579 -7.97075 -11.3183
-9.76878 -8.11605 -9.32441
-9.71178 -8.26136 -7.33051
-9.65478 -8.40666 -5.33661
-9.59778 -8.55196 -3.34271
-9.54078 -8.69726 -1.34881
-9.48378 -8.84257 0.645086
-9.42677 -8.98787 2.63899
-9.36977 -9.13317 4.63289
-10.0229 -5.68733 -15.1585
-9.96591 -5.83263 -13.1646
-9.90891 -5.97794 -11.1707
-9.85191 -6.12324 -9.17681
-9.79491 -6.26854 -7.18291
-9.73791 -6.41385 -5.18901
-9.68091 -6.55915 -3.19511
-9.62391 -6.70445 -1.20121
-9.5669 -6.84975 0.792687
-9.5099 -6.99506 2.78659
-9.4529 -7.14036 4.78049
-10.106 -3.69452 -15.0109
-10.049 -3.83982 -13.017
-9.99204 -3.98512 -11.0231
-9.93504 -4.13043 -9.02921
-9.87804 -4.27573 -7.03531
-9.82104 -4.42103 -5.04141
-9.76404 -4.56634 -3.04751
-9.70703 -4.71164 -1.05361
-9.65003 -4.85694 0.940287
-9.59303 -5.00224 2.93419
-9.53603 -5.14755 4.92809
-10.1892 -1.7017 -14.8633
-10.1322 -1.84701 -12.8694
-10.0752 -1.99231 -10.8755
-10.0182 -2.13761 -8.88161
-9.96117 -2.28292 -6.88771
-9.90416 -2.42822 -4.89381
-9.84716 -2.57352 -2.89991
-9.79016 -2.71883 -0.906013
-9.73316 -2.86413 1.08789
-9.67616 -3.00943 3.08179
-9.61916 -3.15473 5.07569
-10.2723 0.291109 -14.7157
-10.2153 0.145806 -12.7218
-10.1583 0.000502969 -10.7279
-10.1013 -0.1448 -8.73401
-10.0443 -0.290103 -6.74011
-9.98729 -0.435406 -4.74621
-9.93029 -0.580709 -2.75231
-9.87329 -0.726012 -0.758413
-9.81629 -0.871315 1.23549
-9.75929 -1.01662 3.22939
-9.70228 -1.16192 5.22329
-10.3554 2.28392 -14.5681
-10.2984 2.13862 -12.5742
-10.2414 1.99332 -10.5803
-10.1844 1.84801 -8.58641
-10.1274 1.70271 -6.59251
-10.0704 1.55741 -4.59861
-10.0134 1.4121 -2.60471
-9.95642 1.2668 -0.610813
-9.89942 1.1215 1.38309
-9.84241 0.976195 3.37699
-9.78541 0.830892 5.37089
-10.4386 4.27674 -14.4205
-10.3816 4.13143 -12.4266
-10.3246 3.98613 -10.4327
-10.2676 3.84083 -8.43881
-10.2106 3.69552 -6.44491
-10.1535 3.55022 -4.45101
-10.0965 3.40492 -2.45711
-10.0395 3.25961 -0.463212
-9.98254 3.11431 1.53069
-9.92554 2.96901 3.52459
-9.86854 2.82371 5.51849
-10.5217 6.26955 -14.2729
-10.4647 6.12425 -12.279
-10.4077 5.97894 -10.2851
-10.3507 5.83364 -8.29121
-10.2937 5.68834 -6.29731
-10.2367 5.54303 -4.30341
-10.1797 5.39773 -2.30951
-10.1227 5.25243 -0.315612
-10.0657 5.10712 1.67829
-10.0087 4.96182 3.67219
-9.95167 4.81652 5.66609
-10.6048 8.26236 -14.1253
-10.5478 8.11706 -12.1314
-10.4908 7.97176 -10.1375
-10.4338 7.82645 -8.14361
-10.3768 7.68115 -6.14971
-10.3198 7.53585 -4.15581
-10.2628 7.39054 -2.16191
-10.2058 7.24524 -0.168012
-10.1488 7.09994 1.82589
-10.0918 6.95463 3.81979
-10.0348 6.80933 5.81369
-10.6879 10.2552 -13.9777
-10.6309 10.1099 -11.9838
-10.5739 9.96457 -9.98991
-10.5169 9.81927 -7.99601
-10.4599 9.67396 -6.00211
-10.4029 9.52866 -4.00821
-10.3459 9.38336 -2.01431
-10.2889 9.23805 -0.0204116
-10.2319 9.09275 1.97349
-10.1749 8.94745 3.96739
-10.1179 8.80214 5.96129
-7.8592 -9.58588 -15.5045
-7.8022 -9.73118 -13.5106
-7.7452 -9.87648 -11.5167
-7.6882 -10.0218 -9.52277
-7.6312 -10.1671 -7.52887
-7.57419 -10.3124 -5.53497
-7.51719 -10.4577 -3.54107
-7.46019 -10.603 -1.54717
-7.40319 -10.7483 0.446729
-7.34619 -10.8936 2.44063
-7.28919 -11.0389 4.43453
-7.94233 -7.59306 -15.3569
-7.88533 -7.73837 -13.363
-7.82833 -7.88367 -11.3691
-7.77133 -8.02897 -9.37517
-7.71432 -8.17427 -7.38127
-7.65732 -8.31958 -5.38737
-7.60032 -8.46488 -3.39347
-7.54332 -8.61018 -1.39957
-7.48632 -8.75549 0.594329
-7.42932 -8.90079 2.58823
-7.37231 -9.04609 4.58213
-8.02546 -5.60025 -15.2093
-7.96846 -5.74555 -13.2154
-7.91145 -5.89086 -11.2215
-7.85445 -6.03616 -9.22757
-7.79745 -6.18146 -7.23367
-7.74045 -6.32676 -5.23977
-7.68345 -6.47207 -3.24587
-7.62645 -6.61737 -1.25197
-7.56945 -6.76267 0.741929
-7.51244 -6.90798 2.73583
-7.45544 -7.05328 4.72973
-8.10859 -3.60744 -15.0617
-8.05158 -3.75274 -13.0678
-7.99458 -3.89804 -11.0739
-7.93758 -4.04334 -9.07997
-7.88058 -4.18865 -7.08607
-7.82358 -4.33395 -5.09217
-7.76658 -4.47925 -3.09827
-7.70957 -4.62456 -1.10437
-7.65257 -4.76986 0.88953
-7.59557 -4.91516 2.88343
-7.53857 -5.06047 4.87733
-8.19171 -1.61462 -14.9141
-8.13471 -1.75993 -12.9202
-8.07771 -1.90523 -10.9263
-8.02071 -2.05053 -8.93237
-7.96371 -2.19583 -6.93847
-7.90671 -2.34114 -4.94457
-7.8497 -2.48644 -2.95067
-7.7927 -2.63174 -0.95677
-7.7357 -2.77705 1.03713
-7.6787 -2.92235 3.03103
-7.6217 -3.06765 5.02493
-8.27484 0.37819 -14.7665
-8.21784 0.232887 -12.7726
-8.16084 0.0875842 -10.7787
-8.10384 -0.0577188 -8.78477
-8.04684 -0.203022 -6.79087
-7.98983 -0.348325 -4.79697
-7.93283 -0.493628 -2.80307
-7.87583 -0.638931 -0.80917
-7.81883 -0.784234 1.18473
-7.76183 -0.929537 3.17863
-7.70483 -1.07484 5.17253
-8.35797 2.371 -14.6189
-8.30097 2.2257 -12.625
-8.24397 2.0804 -10.6311
-8.18697 1.93509 -8.63717
-8.12996 1.78979 -6.64327
-8.07296 1.64449 -4.64937
-8.01596 1.49919 -2.65547
-7.95896 1.35388 -0.66157
-7.90196 1.20858 1.33233
-7.84496 1.06328 3.32623
-7.78795 0.917973 5.32013
-8.4411 4.36382 -14.4713
-8.3841 4.21851 -12.4774
-8.32709 4.07321 -10.4835
-8.27009 3.92791 -8.48957
-8.21309 3.7826 -6.49567
-8.15609 3.6373 -4.50177
-8.09909 3.492 -2.50787
-8.04209 3.3467 -0.51397
-7.98509 3.20139 1.47993
-7.92808 3.05609 3.47383
-7.87108 2.91079 5.46773
-8.52423 6.35663 -14.3237
-8.46722 6.21133 -12.3298
-8.41022 6.06602 -10.3359
-8.35322 5.92072 -8.34197
-8.29622 5.77542 -6.34807
-8.23922 5.63011 -4.35417
-8.18222 5.48481 -2.36027
-8.12521 5.33951 -0.366369
-8.06821 5.19421 1.62753
-8.01121 5.0489 3.62143
-7.95421 4.9036 5.61533
-8.60735 8.34944 -14.1761
-8.55035 8.20414 -12.1822
-8.49335 8.05884 -10.1883
-8.43635 7.91353 -8.19437
-8.37935 7.76823 -6.20047
-8.32235 7.62293 -4.20657
-8.26534 7.47762 -2.21267
-8.20834 7.33232 -0.218769
-8.15134 7.18702 1.77513
-8.09434 7.04172 3.76903
-8.03734 6.89641 5.76293
-8.69048 10.3423 -14.0285
-8.63348 10.197 -12.0346
-8.57648 10.0516 -10.0407
-8.51948 9.90635 -8.04677
-8.46248 9.76104 -6.05287
-8.40547 9.61574 -4.05897
-8.34847 9.47044 -2.06507
-8.29147 9.32513 -0.071169
-8.23447 9.17983 1.92273
-8.17747 9.03453 3.91663
-8.12047 8.88923 5.91053
-5.86174 -9.49879 -15.5552
-5.80474 -9.6441 -13.5613
-5.74774 -9.7894 -11.5674
-5.69074 -9.9347 -9.57353
-5.63374 -10.08 -7.57963
-5.57674 -10.2253 -5.58573
-5.51973 -10.3706 -3.59183
-5.46273 -10.5159 -1.59793
-5.40573 -10.6612 0.395971
-5.34873 -10.8065 2.38987
-5.29173 -10.9518 4.38377
-5.94487 -7.50598 -15.4076
-5.88787 -7.65128 -13.4137
-5.83087 -7.79659 -11.4198
-5.77387 -7.94189 -9.42593
-5.71687 -8.08719 -7.43203
-5.65986 -8.2325 -5.43813
-5.60286 -8.3778 -3.44423
-5.54586 -8.5231 -1.45033
-5.48886 -8.6684 0.543572
-5.43186 -8.81371 2.53747
-5.37486 -8.95901 4.53137
-6.028 -5.51317 -15.26
-5.971 -5.65847 -13.2661
-5.914 -5.80377 -11.2722
-5.85699 -5.94908 -9.27833
-5.79999 -6.09438 -7.28443
-5.74299 -6.23968 -5.29053
-5.68599 -6.38499 -3.29663
-5.62899 -6.53029 -1.30273
-5.57199 -6.67559 0.691172
-5.51499 -6.82089 2.68507
-5.45798 -6.9662 4.67897
-6.11113 -3.52035 -15.1124
-6.05413 -3.66566 -13.1185
-5.99712 -3.81096 -11.1246
-5.94012 -3.95626 -9.13073
-5.88312 -4.10157 -7.13683
-5.82612 -4.24687 -5.14293
-5.76912 -4.39217 -3.14903
-5.71212 -4.53748 -1.15513
-5.65511 -4.68278 0.838772
-5.59811 -4.82808 2.83267
-5.54111 -4.97338 4.82657
-6.19426 -1.52754 -14.9648
-6.13725 -1.67284 -12.9709
-6.08025 -1.81815 -10.977
-6.02325 -1.96345 -8.98313
-5.96625 -2.10875 -6.98923
-5.90925 -2.25406 -4.99533
-5.85225 -2.39936 -3.00143
-5.79524 -2.54466 -1.00753
-5.73824 -2.68997 0.986372
-5.68124 -2.83527 2.98027
-5.62424 -2.98057 4.97417
-6.27738 0.465271 -14.8172
-6.22038 0.319968 -12.8233
-6.16338 0.174665 -10.8294
-6.10638 0.0293624 -8.83553
-6.04938 -0.115941 -6.84163
-5.99238 -0.261244 -4.84773
-5.93537 -0.406547 -2.85383
-5.87837 -0.55185 -0.859928
-5.82137 -0.697153 1.13397
-5.76437 -0.842456 3.12787
-5.70737 -0.987759 5.12177
-6.36051 2.45808 -14.6696
-6.30351 2.31278 -12.6757
-6.24651 2.16748 -10.6818
-6.18951 2.02218 -8.68793
-6.13251 1.87687 -6.69403
-6.0755 1.73157 -4.70013
-6.0185 1.58627 -2.70623
-5.9615 1.44096 -0.712327
-5.9045 1.29566 1.28157
-5.8475 1.15036 3.27547
-5.7905 1.00505 5.26937
-6.44364 4.4509 -14.522
-6.38664 4.30559 -12.5281
-6.32964 4.16029 -10.5342
-6.27263 4.01499 -8.54033
-6.21563 3.86969 -6.54643
-6.15863 3.72438 -4.55253
-6.10163 3.57908 -2.55863
-6.04463 3.43378 -0.564727
-5.98763 3.28847 1.42917
-5.93063 3.14317 3.42307
-5.87362 2.99787 5.41697
-6.52677 6.44371 -14.3744
-6.46977 6.29841 -12.3805
-6.41276 6.1531 -10.3866
-6.35576 6.0078 -8.39273
-6.29876 5.8625 -6.39883
-6.24176 5.7172 -4.40493
-6.18476 5.57189 -2.41103
-6.12776 5.42659 -0.417127
-6.07075 5.28129 1.57677
-6.01375 5.13598 3.57067
-5.95675 4.99068 5.56457
-6.6099 8.43652 -14.2268
-6.55289 8.29122 -12.2329
-6.49589 8.14592 -10.239
-6.43889 8.00061 -8.24513
-6.38189 7.85531 -6.25123
-6.32489 7.71001 -4.25733
-6.26789 7.56471 -2.26343
-6.21088 7.4194 -0.269527
-6.15388 7.2741 1.72437
-6.09688 7.1288 3.71827
-6.03988 6.98349 5.71217
-6.69302 10.4293 -14.0792
-6.63602 10.284 -12.0853
-6.57902 10.1387 -10.0914
-6.52202 9.99343 -8.09753
-6.46502 9.84812 -6.10363
-6.40802 9.70282 -4.10973
-6.35101 9.55752 -2.11583
-6.29401 9.41222 -0.121926
-6.23701 9.26691 1.87197
-6.18001 9.12161 3.86587
-6.12301 8.97631 5.85977
-3.86428 -9.41171 -15.606
-3.80728 -9.55702 -13.6121
-3.75028 -9.70232 -11.6182
-3.69328 -9.84762 -9.62429
-3.63628 -9.99292 -7.63039
-3.57928 -10.1382 -5.63649
-3.52228 -10.2835 -3.64259
-3.46527 -10.4288 -1.64869
-3.40827 -10.5741 0.345214
-3.35127 -10.7194 2.33911
-3.29427 -10.8647 4.33301
-3.94741 -7.4189 -15.4584
-3.89041 -7.5642 -13.4645
-3.83341 -7.70951 -11.4706
-3.77641 -7.85481 -9.47669
-3.71941 -8.00011 -7.48279
-3.6624 -8.14541 -5.48889
-3.6054 -8.29072 -3.49499
-3.5484 -8.43602 -1.50109
-3.4914 -8.58132 0.492814
-3.4344 -8.72663 2.48671
-3.3774 -8.87193 4.48061
-4.03054 -5.42609 -15.3108
-3.97354 -5.57139 -13.3169
-3.91654 -5.71669 -11.323
-3.85954 -5.862 -9.32909
-3.80253 -6.0073 -7.33519
-3.74553 -6.1526 -5.34129
-3.68853 -6.2979 -3.34739
-3.63153 -6.44321 -1.35349
-3.57453 -6.58851 0.640415
-3.51753 -6.73381 2.63431
-3.46053 -6.87912 4.62821
-4.11367 -3.43327 -15.1632
-4.05667 -3.57858 -13.1693
-3.99967 -3.72388 -11.1754
-3.94266 -3.86918 -9.18149
-3.88566 -4.01449 -7.18759
-3.82866 -4.15979 -5.19369
-3.77166 -4.30509 -3.19979
-3.71466 -4.45039 -1.20589
-3.65766 -4.5957 0.788015
-3.60065 -4.741 2.78191
-3.54365 -4.8863 4.77582
-4.1968 -1.44046 -15.0156
-4.1398 -1.58576 -13.0217
-4.08279 -1.73107 -11.0278
-4.02579 -1.87637 -9.03389
-3.96879 -2.02167 -7.03999
-3.91179 -2.16698 -5.04609
-3.85479 -2.31228 -3.05219
-3.79779 -2.45758 -1.05829
-3.74078 -2.60288 0.935615
-3.68378 -2.74819 2.92952
-3.62678 -2.89349 4.92342
-4.27992 0.552353 -14.868
-4.22292 0.40705 -12.8741
-4.16592 0.261747 -10.8802
-4.10892 0.116444 -8.88629
-4.05192 -0.0288594 -6.89239
-3.99492 -0.174162 -4.89849
-3.93792 -0.319465 -2.90459
-3.88091 -0.464768 -0.910685
-3.82391 -0.610071 1.08322
-3.76691 -0.755374 3.07712
-3.70991 -0.900677 5.07102
-4.36305 2.54517 -14.7204
-4.30605 2.39986 -12.7265
-4.24905 2.25456 -10.7326
-4.19205 2.10926 -8.73869
-4.13505 1.96395 -6.74479
-4.07805 1.81865 -4.75089
-4.02104 1.67335 -2.75698
-3.96404 1.52804 -0.763085
-3.90704 1.38274 1.23082
-3.85004 1.23744 3.22472
-3.79304 1.09214 5.21862
-4.44618 4.53798 -14.5728
-4.38918 4.39268 -12.5789
-4.33218 4.24737 -10.585
-4.27518 4.10207 -8.59109
-4.21817 3.95677 -6.59718
-4.16117 3.81146 -4.60328
-4.10417 3.66616 -2.60938
-4.04717 3.52086 -0.615484
-3.99017 3.37555 1.37842
-3.93317 3.23025 3.37232
-3.87617 3.08495 5.36622
-4.52931 6.53079 -14.4252
-4.47231 6.38549 -12.4313
-4.41531 6.24019 -10.4374
-4.3583 6.09488 -8.44348
-4.3013 5.94958 -6.44958
-4.2443 5.80428 -4.45568
-4.1873 5.65897 -2.46178
-4.1303 5.51367 -0.467884
-4.0733 5.36837 1.52602
-4.01629 5.22306 3.51992
-3.95929 5.07776 5.51382
-4.61244 8.5236 -14.2776
-4.55544 8.3783 -12.2837
-4.49843 8.233 -10.2898
-4.44143 8.0877 -8.29588
-4.38443 7.94239 -6.30198
-4.32743 7.79709 -4.30808
-4.27043 7.65179 -2.31418
-4.21343 7.50648 -0.320284
-4.15642 7.36118 1.67362
-4.09942 7.21588 3.66752
-4.04242 7.07057 5.66142
-4.69557 10.5164 -14.13
-4.63856 10.3711 -12.1361
-4.58156 10.2258 -10.1422
-4.52456 10.0805 -8.14828
-4.46756 9.93521 -6.15438
-4.41056 9.7899 -4.16048
-4.35356 9.6446 -2.16658
-4.29655 9.4993 -0.172684
-4.23955 9.35399 1.82122
-4.18255 9.20869 3.81512
-4.12555 9.06339 5.80902
-1.86683 -9.32463 -15.6567
-1.80982 -9.46993 -13.6628
-1.75282 -9.61524 -11.6689
-1.69582 -9.76054 -9.67504
-1.63882 -9.90584 -7.68114
-1.58182 -10.0511 -5.68724
-1.52482 -10.1964 -3.69334
-1.46782 -10.3418 -1.69944
-1.41081 -10.4871 0.294457
-1.35381 -10.6324 2.28836
-1.29681 -10.7777 4.28226
-1.94995 -7.33182 -15.5091
-1.89295 -7.47712 -13.5152
-1.83595 -7.62242 -11.5213
-1.77895 -7.76773 -9.52744
-1.72195 -7.91303 -7.53354
-1.66495 -8.05833 -5.53964
-1.60794 -8.20364 -3.54574
-1.55094 -8.34894 -1.55184
-1.49394 -8.49424 0.442057
-1.43694 -8.63955 2.43596
-1.37994 -8.78485 4.42986
-2.03308 -5.33901 -15.3615
-1.97608 -5.48431 -13.3676
-1.91908 -5.62961 -11.3737
-1.86208 -5.77491 -9.37984
-1.80508 -5.92022 -7.38594
-1.74807 -6.06552 -5.39204
-1.69107 -6.21082 -3.39814
-1.63407 -6.35613 -1.40424
-1.57707 -6.50143 0.589657
-1.52007 -6.64673 2.58356
-1.46307 -6.79204 4.57746
-2.11621 -3.34619 -15.2139
-2.05921 -3.4915 -13.22
-2.00221 -3.6368 -11.2261
-1.94521 -3.7821 -9.23224
-1.8882 -3.9274 -7.23834
-1.8312 -4.07271 -5.24444
-1.7742 -4.21801 -3.25054
-1.7172 -4.36331 -1.25664
-1.6602 -4.50862 0.737257
-1.6032 -4.65392 2.73116
-1.54619 -4.79922 4.72506
-2.19934 -1.35338 -15.0663
-2.14234 -1.49868 -13.0724
-2.08534 -1.64399 -11.0785
-2.02833 -1.78929 -9.08464
-1.97133 -1.93459 -7.09074
-1.91433 -2.07989 -5.09684
-1.85733 -2.2252 -3.10294
-1.80033 -2.3705 -1.10904
-1.74333 -2.5158 0.884858
-1.68632 -2.66111 2.87876
-1.62932 -2.80641 4.87266
-2.28247 0.639434 -14.9187
-2.22546 0.494131 -12.9248
-2.16846 0.348828 -10.9309
-2.11146 0.203525 -8.93704
-2.05446 0.0582218 -6.94314
-1.99746 -0.0870812 -4.94924
-1.94046 -0.232384 -2.95534
-1.88346 -0.377687 -0.961442
-1.82645 -0.52299 1.03246
-1.76945 -0.668293 3.02636
-1.71245 -0.813596 5.02026
-2.36559 2.63225 -14.7711
-2.30859 2.48694 -12.7772
-2.25159 2.34164 -10.7833
-2.19459 2.19634 -8.78944
-2.13759 2.05103 -6.79554
-2.08059 1.90573 -4.80164
-2.02358 1.76043 -2.80774
-1.96658 1.61513 -0.813842
-1.90958 1.46982 1.18006
-1.85258 1.32452 3.17396
-1.79558 1.17922 5.16786
-2.44872 4.62506 -14.6235
-2.39172 4.47976 -12.6296
-2.33472 4.33445 -10.6357
-2.27772 4.18915 -8.64184
-2.22072 4.04385 -6.64794
-2.16371 3.89854 -4.65404
-2.10671 3.75324 -2.66014
-2.04971 3.60794 -0.666242
-1.99271 3.46264 1.32766
-1.93571 3.31733 3.32156
-1.87871 3.17203 5.31546
-2.53185 6.61787 -14.4759
-2.47485 6.47257 -12.482
-2.41785 6.32727 -10.4881
-2.36085 6.18196 -8.49424
-2.30384 6.03666 -6.50034
-2.24684 5.89136 -4.50644
-2.18984 5.74605 -2.51254
-2.13284 5.60075 -0.518642
-2.07584 5.45545 1.47526
-2.01884 5.31015 3.46916
-1.96183 5.16484 5.46306
-2.61498 8.61069 -14.3283
-2.55798 8.46538 -12.3344
-2.50098 8.32008 -10.3405
-2.44397 8.17478 -8.34664
-2.38697 8.02947 -6.35274
-2.32997 7.88417 -4.35884
-2.27297 7.73887 -2.36494
-2.21597 7.59357 -0.371041
-2.15897 7.44826 1.62286
-2.10196 7.30296 3.61676
-2.04496 7.15766 5.61066
-2.69811 10.6035 -14.1807
-2.6411 10.4582 -12.1868
-2.5841 10.3129 -10.1929
-2.5271 10.1676 -8.19904
-2.4701 10.0223 -6.20514
-2.4131 9.87698 -4.21124
-2.3561 9.73168 -2.21734
-2.2991 9.58638 -0.223441
-2.24209 9.44108 1.77046
-2.18509 9.29577 3.76436
-2.12809 9.15047 5.75826
0.130632 -9.23755 -15.7075
0.187634 -9.38285 -13.7136
0.244635 -9.52816 -11.7197
0.301637 -9.67346 -9.7258
0.358638 -9.81876 -7.7319
0.41564 -9.96407 -5.738
0.472642 -10.1094 -3.7441
0.529643 -10.2547 -1.7502
0.586645 -10.4 0.243699
0.643646 -10.5453 2.2376
0.700648 -10.6906 4.2315
0.0475041 -7.24474 -15.5599
0.104506 -7.39004 -13.566
0.161507 -7.53534 -11.5721
0.218509 -7.68065 -9.5782
0.27551 -7.82595 -7.5843
0.332512 -7.97125 -5.5904
0.389514 -8.11656 -3.5965
0.446515 -8.26186 -1.6026
0.503517 -8.40716 0.3913
0.560518 -8.55246 2.3852
0.61752 -8.69777 4.3791
-0.0356239 -5.25192 -15.4123
0.0213777 -5.39723 -13.4184
0.0783793 -5.54253 -11.4245
0.135381 -5.68783 -9.4306
0.192382 -5.83314 -7.4367
0.249384 -5.97844 -5.4428
0.306386 -6.12374 -3.4489
0.363387 -6.26905 -1.455
0.420389 -6.41435 0.5389
0.47739 -6.55965 2.5328
0.534392 -6.70495 4.5267
-0.118752 -3.25911 -15.2647
-0.0617503 -3.40441 -13.2708
-0.00474873 -3.54972 -11.2769
0.0522529 -3.69502 -9.283
0.109254 -3.84032 -7.2891
0.166256 -3.98563 -5.2952
0.223258 -4.13093 -3.3013
0.280259 -4.27623 -1.3074
0.337261 -4.42154 0.6865
0.394262 -4.56684 2.6804
0.451264 -4.71214 4.6743
-0.20188 -1.2663 -15.1171
-0.144878 -1.4116 -13.1232
-0.0878767 -1.5569 -11.1293
-0.0308752 -1.70221 -9.1354
0.0261264 -1.84751 -7.1415
0.083128 -1.99281 -5.1476
0.14013 -2.13812 -3.1537
0.197131 -2.28342 -1.1598
0.254133 -2.42872 0.8341
0.311134 -2.57403 2.828
0.368136 -2.71933 4.8219
-0.285008 0.726515 -14.9695
-0.228006 0.581212 -12.9756
-0.171005 0.435909 -10.9817
-0.114003 0.290606 -8.9878
-0.0570016 0.145303 -6.9939
0 0 -5
0.0570016 -0.145303 -3.0061
0.114003 -0.290606 -1.0122
0.171005 -0.435909 0.9817
0.228006 -0.581212 2.9756
0.285008 -0.726515 4.9695
-0.368136 2.71933 -14.8219
-0.311134 2.57403 -12.828
-0.254133 2.42872 -10.8341
-0.197131 2.28342 -8.8402
-0.14013 2.13812 -6.8463
-0.083128 1.99281 -4.8524
-0.0261264 1.84751 -2.8585
0.0308752 1.70221 -0.864599
0.0878767 1.5569 1.1293
0.144878 1.4116 3.1232
0.20188 1.2663 5.1171
-0.451264 4.71214 -14.6743
-0.394262 4.56684 -12.6804
-0.337261 4.42154 -10.6865
-0.280259 4.27623 -8.6926
-0.223258 4.13093 -6.6987
-0.166256 3.98563 -4.7048
-0.109254 3.84032 -2.7109
-0.0522529 3.69502 -0.716999
0.00474873 3.54972 1.2769
0.0617503 3.40441 3.2708
0.118752 3.25911 5.2647
-0.534392 6.70495 -14.5267
-0.47739 6.55965 -12.5328
-0.420389 6.41435 -10.5389
-0.363387 6.26905 -8.545
-0.306386 6.12374 -6.5511
-0.249384 5.97844 -4.5572
-0.192382 5.83314 -2.5633
-0.135381 5.68783 -0.569399
-0.0783793 5.54253 1.4245
-0.0213777 5.39723 3.4184
0.0356239 5.25192 5.4123
-0.61752 8.69777 -14.3791
-0.560518 8.55246 -12.3852
-0.503517 8.40716 -10.3913
-0.446515 8.26186 -8.3974
-0.389514 8.11656 -6.4035
-0.332512 7.97125 -4.4096
-0.27551 7.82595 -2.4157
-0.218509 7.68065 -0.421799
-0.161507 7.53534 1.5721
-0.104506 7.39004 3.566
-0.0475041 7.24474 5.5599
-0.700648 10.6906 -14.2315
-0.643646 10.5453 -12.2376
-0.586645 10.4 -10.2437
-0.529643 10.2547 -8.2498
-0.472642 10.1094 -6.2559
-0.41564 9.96407 -4.262
-0.358638 9.81876 -2.2681
-0.301637 9.67346 -0.274199
-0.244635 9.52816 1.7197
-0.187634 9.38285 3.7136
-0.130632 9.23755 5.7075
2.12809 -9.15047 -15.7583
2.18509 -9.29577 -13.7644
2.24209 -9.44108 -11.7705
2.2991 -9.58638 -9.77656
2.3561 -9.73168 -7.78266
2.4131 -9.87698 -5.78876
2.4701 -10.0223 -3.79486
2.5271 -10.1676 -1.80096
2.5841 -10.3129 0.192942
2.6411 -10.4582 2.18684
2.69811 -10.6035 4.18074
2.04496 -7.15766 -15.6107
2.10196 -7.30296 -13.6168
2.15897 -7.44826 -11.6229
2.21597 -7.59357 -9.62896
2.27297 -7.73887 -7.63506
2.32997 -7.88417 -5.64116
2.38697 -8.02947 -3.64726
2.44397 -8.17478 -1.65336
2.50098 -8.32008 0.340542
2.55798 -8.46538 2.33444
2.61498 -8.61069 4.32834
1.96183 -5.16484 -15.4631
2.01884 -5.31015 -13.4692
2.07584 -5.45545 -11.4753
2.13284 -5.60075 -9.48136
2.18984 -5.74605 -7.48746
2.24684 -5.89136 -5.49356
2.30384 -6.03666 -3.49966
2.36085 -6.18196 -1.50576
2.41785 -6.32727 0.488142
2.47485 -6.47257 2.48204
2.53185 -6.61787 4.47594
1.87871 -3.17203 -15.3155
1.93571 -3.31733 -13.3216
1.99271 -3.46264 -11.3277
2.04971 -3.60794 -9.33376
2.10671 -3.75324 -7.33986
2.16371 -3.89854 -5.34596
2.22072 -4.04385 -3.35206
2.27772 -4.18915 -1.35816
2.33472 -4.33445 0.635743
2.39172 -4.47976 2.62964
2.44872 -4.62506 4.62354
1.79558 -1.17922 -15.1679
1.85258 -1.32452 -13.174
1.90958 -1.46982 -11.1801
1.96658 -1.61513 -9.18616
2.02358 -1.76043 -7.19226
2.08059 -1.90573 -5.19836
2.13759 -2.05103 -3.20446
2.19459 -2.19634 -1.21056
2.25159 -2.34164 0.783343
2.30859 -2.48694 2.77724
2.36559 -2.63225 4.77114
1.71245 0.813596 -15.0203
1.76945 0.668293 -13.0264
1.82645 0.52299 -11.0325
1.88346 0.377687 -9.03856
1.94046 0.232384 -7.04466
1.99746 0.0870812 -5.05076
2.05446 -0.0582218 -3.05686
2.11146 -0.203525 -1.06296
2.16846 -0.348828 0.930943
2.22546 -0.494131 2.92484
2.28247 -0.639434 4.91874
1.62932 2.80641 -14.8727
1.68632 2.66111 -12.8788
1.74333 2.5158 -10.8849
1.80033 2.3705 -8.89096
1.85733 2.2252 -6.89706
1.91433 2.07989 -4.90316
1.97133 1.93459 -2.90926
2.02833 1.78929 -0.915357
2.08534 1.64399 1.07854
2.14234 1.49868 3.07244
2.19934 1.35338 5.06634
1.54619 4.79922 -14.7251
1.6032 4.65392 -12.7312
1.6602 4.50862 -10.7373
1.7172 4.36331 -8.74336
1.7742 4.21801 -6.74946
1.8312 4.07271 -4.75556
1.8882 3.9274 -2.76166
1.94521 3.7821 -0.767757
2.00221 3.6368 1.22614
2.05921 3.4915 3.22004
2.11621 3.34619 5.21394
1.46307 6.79204 -14.5775
1.52007 6.64673 -12.5836
1.57707 6.50143 -10.5897
1.63407 6.35613 -8.59576
1.69107 6.21082 -6.60186
1.74807 6.06552 -4.60796
1.80508 5.92022 -2.61406
1.86208 5.77491 -0.620156
1.91908 5.62961 1.37374
1.97608 5.48431 3.36764
2.03308 5.33901 5.36154
1.37994 8.78485 -14.4299
1.43694 8.63955 -12.436
1.49394 8.49424 -10.4421
1.55094 8.34894 -8.44816
1.60794 8.20364 -6.45426
1.66495 8.05833 -4.46036
1.72195 7.91303 -2.46646
1.77895 7.76773 -0.472556
1.83595 7.62242 1.52134
1.89295 7.47712 3.51524
1.94995 7.33182 5.50914
1.29681 10.7777 -14.2823
1.35381 10.6324 -12.2884
1.41081 10.4871 -10.2945
1.46782 10.3418 -8.30056
1.52482 10.1964 -6.30666
1.58182 10.0511 -4.31276
1.63882 9.90584 -2.31886
1.69582 9.76054 -0.324956
1.75282 9.61524 1.66894
1.80982 9.46993 3.66284
1.86683 9.32463 5.65674
4.12555 -9.06339 -15.809
4.18255 -9.20869 -13.8151
4.23955 -9.35399 -11.8212
4.29655 -9.4993 -9.82732
4.35356 -9.6446 -7.83342
4.41056 -9.7899 -5.83952
4.46756 -9.93521 -3.84562
4.52456 -10.0805 -1.85172
4.58156 -10.2258 0.142185
4.63856 -10.3711 2.13608
4.69557 -10.5164 4.12998
4.04242 -7.07057 -15.6614
4.09942 -7.21588 -13.6675
4.15642 -7.36118 -11.6736
4.21343 -7.50648 -9.67972
4.27043 -7.65179 -7.68582
4.32743 -7.79709 -5.69192
4.38443 -7.94239 -3.69802
4.44143 -8.0877 -1.70412
4.49843 -8.233 0.289785
4.55544 -8.3783 2.28368
4.61244 -8.5236 4.27759
3.95929 -5.07776 -15.5138
4.01629 -5.22306 -13.5199
4.0733 -5.36837 -11.526
4.1303 -5.51367 -9.53212
4.1873 -5.65897 -7.53822
4.2443 -5.80428 -5.54432
4.3013 -5.94958 -3.55042
4.3583 -6.09488 -1.55652
4.41531 -6.24019 0.437385
4.47231 -6.38549 2.43129
4.52931 -6.53079 4.42519
3.87617 -3.08495 -15.3662
3.93317 -3.23025 -13.3723
3.99017 -3.37555 -11.3784
4.04717 -3.52086 -9.38452
4.10417 -3.66616 -7.39062
4.16117 -3.81146 -5.39672
4.21817 -3.95677 -3.40282
4.27518 -4.10207 -1.40891
4.33218 -4.24737 0.584985
4.38918 -4.39268 2.57889
4.44618 -4.53798 4.57279
3.79304 -1.09214 -15.2186
3.85004 -1.23744 -13.2247
3.90704 -1.38274 -11.2308
3.96404 -1.52804 -9.23692
4.02104 -1.67335 -7.24302
4.07805 -1.81865 -5.24911
4.13505 -1.96395 -3.25521
4.19205 -2.10926 -1.26131
4.24905 -2.25456 0.732585
4.30605 -2.39986 2.72649
4.36305 -2.54517 4.72039
3.70991 0.900677 -15.071
3.76691 0.755374 -13.0771
3.82391 0.610071 -11.0832
3.88091 0.464768 -9.08932
3.93792 0.319465 -7.09541
3.99492 0.174162 -5.10151
4.05192 0.0288594 -3.10761
4.10892 -0.116444 -1.11371
4.16592 -0.261747 0.880186
4.22292 -0.40705 2.87409
4.27992 -0.552353 4.86799
3.62678 2.89349 -14.9234
3.68378 2.74819 -12.9295
3.74078 2.60288 -10.9356
3.79779 2.45758 -8.94171
3.85479 2.31228 -6.94781
3.91179 2.16698 -4.95391
3.96879 2.02167 -2.96001
4.02579 1.87637 -0.966114
4.08279 1.73107 1.02779
4.1398 1.58576 3.02169
4.1968 1.44046 5.01559
3.54365 4.8863 -14.7758
3.60065 4.741 -12.7819
3.65766 4.5957 -10.788
3.71466 4.45039 -8.79411
3.77166 4.30509 -6.80021
3.82866 4.15979 -4.80631
3.88566 4.01449 -2.81241
3.94266 3.86918 -0.818514
3.99967 3.72388 1.17539
4.05667 3.57858 3.16929
4.11367 3.43327 5.16319
3.46053 6.87912 -14.6282
3.51753 6.73381 -12.6343
3.57453 6.58851 -10.6404
3.63153 6.44321 -8.64651
3.68853 6.2979 -6.65261
3.74553 6.1526 -4.65871
3.80253 6.0073 -2.66481
3.85954 5.862 -0.670914
3.91654 5.71669 1.32299
3.97354 5.57139 3.31689
4.03054 5.42609 5.31079
3.3774 8.87193 -14.4806
3.4344 8.72663 -12.4867
3.4914 8.58132 -10.4928
3.5484 8.43602 -8.49891
3.6054 8.29072 -6.50501
3.6624 8.14541 -4.51111
3.71941 8.00011 -2.51721
3.77641 7.85481 -0.523313
3.83341 7.70951 1.47059
3.89041 7.5642 3.46449
3.94741 7.4189 5.45839
3.29427 10.8647 -14.333
3.35127 10.7194 -12.3391
3.40827 10.5741 -10.3452
3.46527 10.4288 -8.35131
3.52228 10.2835 -6.35741
3.57928 10.1382 -4.36351
3.63628 9.99292 -2.36961
3.69328 9.84762 -0.375713
3.75028 9.70232 1.61819
3.80728 9.55702 3.61209
3.86428 9.41171 5.60599
6.12301 -8.97631 -15.8598
6.18001 -9.12161 -13.8659
6.23701 -9.26691 -11.872
6.29401 -9.41222 -9.87807
6.35101 -9.55752 -7.88417
6.40802 -9.70282 -5.89027
6.46502 -9.84812 -3.89637
6.52202 -9.99343 -1.90247
6.57902 -10.1387 0.0914272
6.63602 -10.284 2.08533
6.69302 -10.4293 4.07923
6.03988 -6.98349 -15.7122
6.09688 -7.1288 -13.7183
6.15388 -7.2741 -11.7244
6.21088 -7.4194 -9.73047
6.26789 -7.56471 -7.73657
6.32489 -7.71001 -5.74267
6.38189 -7.85531 -3.74877
6.43889 -8.00061 -1.75487
6.49589 -8.14592 0.239027
6.55289 -8.29122 2.23293
6.6099 -8.43652 4.22683
5.95675 -4.99068 -15.5646
6.01375 -5.13598 -13.5707
6.07075 -5.28129 -11.5768
6.12776 -5.42659 -9.58287
6.18476 -5.57189 -7.58897
6.24176 -5.7172 -5.59507
6.29876 -5.8625 -3.60117
6.35576 -6.0078 -1.60727
6.41276 -6.1531 0.386628
6.46977 -6.29841 2.38053
6.52677 -6.44371 4.37443
5.87362 -2.99787 -15.417
5.93063 -3.14317 -13.4231
5.98763 -3.28847 -11.4292
6.04463 -3.43378 -9.43527
6.10163 -3.57908 -7.44137
6.15863 -3.72438 -5.44747
6.21563 -3.86969 -3.45357
6.27263 -4.01499 -1.45967
6.32964 -4.16029 0.534228
6.38664 -4.30559 2.52813
6.44364 -4.4509 4.52203
5.7905 -1.00505 -15.2694
5.8475 -1.15036 -13.2755
5.9045 -1.29566 -11.2816
5.9615 -1.44096 -9.28767
6.0185 -1.58627 -7.29377
6.0755 -1.73157 -5.29987
6.13251 -1.87687 -3.30597
6.18951 -2.02218 -1.31207
6.24651 -2.16748 0.681828
6.30351 -2.31278 2.67573
6.36051 -2.45808 4.66963
5.70737 0.987759 -15.1218
5.76437 0.842456 -13.1279
5.82137 0.697153 -11.134
5.87837 0.55185 -9.14007
5.93537 0.406547 -7.14617
5.99238 0.261244 -5.15227
6.04938 0.115941 -3.15837
6.10638 -0.0293624 -1.16447
6.16338 -0.174665 0.829428
6.22038 -0.319968 2.82333
6.27738 -0.465271 4.81723
5.62424 2.98057 -14.9742
5.68124 2.83527 -12.9803
5.73824 2.68997 -10.9864
5.79524 2.54466 -8.99247
5.85225 2.39936 -6.99857
5.90925 2.25406 -5.00467
5.96625 2.10875 -3.01077
6.02325 1.96345 -1.01687
6.08025 1.81815 0.977029
6.13725 1.67284 2.97093
6.19426 1.52754 4.96483
5.54111 4.97338 -14.8266
5.59811 4.82808 -12.8327
5.65511 4.68278 -10.8388
5.71212 4.53748 -8.84487
5.76912 4.39217 -6.85097
5.82612 4.24687 -4.85707
5.88312 4.10157 -2.86317
5.94012 3.95626 -0.869271
5.99712 3.81096 1.12463
6.05413 3.66566 3.11853
6.11113 3.52035 5.11243
5.45798 6.9662 -14.679
5.51499 6.82089 -12.6851
5.57199 6.67559 -10.6912
5.62899 6.53029 -8.69727
5.68599 6.38499 -6.70337
5.74299 6.23968 -4.70947
5.79999 6.09438 -2.71557
5.85699 5.94908 -0.721671
5.914 5.80377 1.27223
5.971 5.65847 3.26613
6.028 5.51317 5.26003
5.37486 8.95901 -14.5314
5.43186 8.81371 -12.5375
5.48886 8.6684 -10.5436
5.54586 8.5231 -8.54967
5.60286 8.3778 -6.55577
5.65986 8.2325 -4.56187
5.71687 8.08719 -2.56797
5.77387 7.94189 -0.574071
5.83087 7.79659 1.41983
5.88787 7.65128 3.41373
5.94487 7.50598 5.40763
5.29173 10.9518 -14.3838
5.34873 10.8065 -12.3899
5.40573 10.6612 -10.396
5.46273 10.5159 -8.40207
5.51973 10.3706 -6.40817
5.57674 10.2253 -4.41427
5.63374 10.08 -2.42037
5.69074 9.9347 -0.426471
5.74774 9.7894 1.56743
5.80474 9.6441 3.56133
5.86174 9.49879 5.55523
8.12047 -8.88923 -15.9105
8.17747 -9.03453 -13.9166
8.23447 -9.17983 -11.9227
8.29147 -9.32513 -9.92883
8.34847 -9.47044 -7.93493
8.40547 -9.61574 -5.94103
8.46248 -9.76104 -3.94713
8.51948 -9.90635 -1.95323
8.57648 -10.0516 0.0406698
8.63348 -10.197 2.03457
8.69048 -10.3423 4.02847
8.03734 -6.89641 -15.7629
8.09434 -7.04172 -13.769
8.15134 -7.18702 -11.7751
8.20834 -7.33232 -9.78123
8.26534 -7.47762 -7.78733
8.32235 -7.62293 -5.79343
8.37935 -7.76823 -3.79953
8.43635 -7.91353 -1.80563
8.49335 -8.05884 0.18827
8.55035 -8.20414 2.18217
8.60735 -8.34944 4.17607
7.95421 -4.9036 -15.6153
8.01121 -5.0489 -13.6214
8.06821 -5.19421 -11.6275
8.12521 -5.33951 -9.63363
8.18222 -5.48481 -7.63973
8.23922 -5.63011 -5.64583
8.29622 -5.77542 -3.65193
8.35322 -5.92072 -1.65803
8.41022 -6.06602 0.33587
8.46722 -6.21133 2.32977
8.52423 -6.35663 4.32367
7.87108 -2.91079 -15.4677
7.92808 -3.05609 -13.4738
7.98509 -3.20139 -11.4799
8.04209 -3.3467 -9.48603
8.09909 -3.492 -7.49213
8.15609 -3.6373 -5.49823
8.21309 -3.7826 -3.50433
8.27009 -3.92791 -1.51043
8.32709 -4.07321 0.483471
8.3841 -4.21851 2.47737
8.4411 -4.36382 4.47127
7.78795 -0.917973 -15.3201
7.84496 -1.06328 -13.3262
7.90196 -1.20858 -11.3323
7.95896 -1.35388 -9.33843
8.01596 -1.49919 -7.34453
8.07296 -1.64449 -5.35063
8.12996 -1.78979 -3.35673
8.18697 -1.93509 -1.36283
8.24397 -2.0804 0.631071
8.30097 -2.2257 2.62497
8.35797 -2.371 4.61887
7.70483 1.07484 -15.1725
7.76183 0.929537 -13.1786
7.81883 0.784234 -11.1847
7.87583 0.638931 -9.19083
7.93283 0.493628 -7.19693
7.98983 0.348325 -5.20303
8.04684 0.203022 -3.20913
8.10384 0.0577188 -1.21523
8.16084 -0.0875842 0.778671
8.21784 -0.232887 2.77257
8.27484 -0.37819 4.76647
7.6217 3.06765 -15.0249
7.6787 2.92235 -13.031
7.7357 2.77705 -11.0371
7.7927 2.63174 -9.04323
7.8497 2.48644 -7.04933
7.90671 2.34114 -5.05543
7.96371 2.19583 -3.06153
8.02071 2.05053 -1.06763
8.07771 1.90523 0.926271
8.13471 1.75993 2.92017
8.19171 1.61462 4.91407
7.53857 5.06047 -14.8773
7.59557 4.91516 -12.8834
7.65257 4.76986 -10.8895
7.70957 4.62456 -8.89563
7.76658 4.47925 -6.90173
7.82358 4.33395 -4.90783
7.88058 4.18865 -2.91393
7.93758 4.04334 -0.920029
7.99458 3.89804 1.07387
8.05158 3.75274 3.06777
8.10859 3.60744 5.06167
7.45544 7.05328 -14.7297
7.51244 6.90798 -12.7358
7.56945 6.76267 -10.7419
7.62645 6.61737 -8.74803
7.68345 6.47207 -6.75413
7.74045 6.32676 -4.76023
7.79745 6.18146 -2.76633
7.85445 6.03616 -0.772428
7.91145 5.89086 1.22147
7.96846 5.74555 3.21537
8.02546 5.60025 5.20927
7.37231 9.04609 -14.5821
7.42932 8.90079 -12.5882
7.48632 8.75549 -10.5943
7.54332 8.61018 -8.60043
7.60032 8.46488 -6.60653
7.65732 8.31958 -4.61263
7.71432 8.17427 -2.61873
7.77133 8.02897 -0.624828
7.82833 7.88367 1.36907
7.88533 7.73837 3.36297
7.94233 7.59306 5.35687
7.28919 11.0389 -14.4345
7.34619 10.8936 -12.4406
7.40319 10.7483 -10.4467
7.46019 10.603 -8.45283
7.51719 10.4577 -6.45893
7.57419 10.3124 -4.46503
7.6312 10.1671 -2.47113
7.6882 10.0218 -0.477228
7.7452 9.87648 1.51667
7.8022 9.73118 3.51057
7.8592 9.58588 5.50447
10.1179 -8.80214 -15.9613
10.1749 -8.94745 -13.9674
10.2319 -9.09275 -11.9735
10.2889 -9.23805 -9.97959
10.3459 -9.38336 -7.98569
10.4029 -9.52866 -5.99179
10.4599 -9.67396 -3.99789
10.5169 -9.81927 -2.00399
10.5739 -9.96457 -0.0100876
10.6309 -10.1099 1.98381
10.6879 -10.2552 3.97771
10.0348 -6.80933 -15.8137
10.0918 -6.95463 -13.8198
10.1488 -7.09994 -11.8259
10.2058 -7.24524 -9.83199
10.2628 -7.39054 -7.83809
10.3198 -7.53585 -5.84419
10.3768 -7.68115 -3.85029
10.4338 -7.82645 -1.85639
10.4908 -7.97176 0.137513
10.5478 -8.11706 2.13141
10.6048 -8.26236 4.12531
9.95167 -4.81652 -15.6661
10.0087 -4.96182 -13.6722
10.0657 -5.10712 -11.6783
10.1227 -5.25243 -9.68439
10.1797 -5.39773 -7.69049
10.2367 -5.54303 -5.69659
10.2937 -5.68834 -3.70269
10.3507 -5.83364 -1.70879
10.4077 -5.97894 0.285113
10.4647 -6.12425 2.27901
10.5217 -6.26955 4.27291
9.86854 -2.82371 -15.5185
9.92554 -2.96901 -13.5246
9.98254 -3.11431 -11.5307
10.0395 -3.25961 -9.53679
10.0965 -3.40492 -7.54289
10.1535 -3.55022 -5.54899
10.2106 -3.69552 -3.55509
10.2676 -3.84083 -1.56119
10.3246 -3.98613 0.432713
10.3816 -4.13143 2.42661
10.4386 -4.27674 4.42051
9.78541 -0.830892 -15.3709
9.84241 -0.976195 -13.377
9.89942 -1.1215 -11.3831
9.95642 -1.2668 -9.38919
10.0134 -1.4121 -7.39529
10.0704 -1.55741 -5.40139
10.1274 -1.70271 -3.40749
10.1844 -1.84801 -1.41359
10.2414 -1.99332 0.580313
10.2984 -2.13862 2.57421
10.3554 -2.28392 4.56811
9.70228 1.16192 -15.2233
9.75929 1.01662 -13.2294
9.81629 0.871315 -11.2355
9.87329 0.726012 -9.24159
9.93029 0.580709 -7.24769
9.98729 0.435406 -5.25379
10.0443 0.290103 -3.25989
10.1013 0.1448 -1.26599
10.1583 -0.000502969 0.727914
10.2153 -0.145806 2.72181
10.2723 -0.291109 4.71571
9.61916 3.15473 -15.0757
9.67616 3.00943 -13.0818
9.73316 2.86413 -11.0879
9.79016 2.71883 -9.09399
9.84716 2.57352 -7.10009
9.90416 2.42822 -5.10619
9.96117 2.28292 -3.11229
10.0182 2.13761 -1.11839
10.0752 1.99231 0.875514
10.1322 1.84701 2.86941
10.1892 1.7017 4.86331
9.53603 5.14755 -14.9281
9.59303 5.00224 -12.9342
9.65003 4.85694 -10.9403
9.70703 4.71164 -8.94639
9.76404 4.56634 -6.95249
9.82104 4.42103 -4.95859
9.87804 4.27573 -2.96469
9.93504 4.13043 -0.970786
9.99204 3.98512 1.02311
10.049 3.83982 3.01701
10.106 3.69452 5.01091
9.4529 7.14036 -14.7805
9.5099 6.99506 -12.7866
9.5669 6.84975 -10.7927
9.62391 6.70445 -8.79879
9.68091 6.55915 -6.80489
9.73791 6.41385 -4.81099
9.79491 6.26854 -2.81709
9.85191 6.12324 -0.823186
9.90891 5.97794 1.17071
9.96591 5.83263 3.16461
10.0229 5.68733 5.15851
9.36977 9.13317 -14.6329
9.42677 8.98787 -12.639
9.48378 8.84257 -10.6451
9.54078 8.69726 -8.65119
9.59778 8.55196 -6.65729
9.65478 8.40666 -4.66339
9.71178 8.26136 -2.66949
9.76878 8.11605 -0.675586
9.82579 7.97075 1.31831
9.88279 7.82545 3.31221
9.93979 7.68014 5.30611
9.28664 11.126 -14.4853
9.34365 10.9807 -12.4914
9.40065 10.8354 -10.4975
9.45765 10.6901 -8.50359
9.51465 10.5448 -6.50969
9.57165 10.3995 -4.51579
9.62865 10.2542 -2.52189
9.68566 10.1089 -0.527985
9.74266 9.96356 1.46591
9.79966 9.81826 3.45981
9.85666 9.67296 5.45372
