ply
format ascii 1.0
comment created by 3d_to_ply
element vertex 50
property float32 x
property float32 y
property float32 z
property uint8 red
property uint8 green
property uint8 blue
end_header
1.866025 1.232051 8.000000 255 255 255
0.566988 1.982048 8.000000 255 255 255
-0.732050 2.732050 8.000000 255 255 255
-2.031089 3.482052 8.000000 255 255 255
-3.330128 4.232053 8.000000 255 255 255
1.866025 1.232051 6.500000 255 255 255
0.566988 1.982048 6.500000 255 255 255
-0.732050 2.732050 6.500000 255 255 255
-2.031089 3.482052 6.500000 255 255 255
-3.330128 4.232053 6.500000 255 255 255
1.866025 1.232051 5.000000 255 255 255
0.566988 1.982048 5.000000 255 255 255
-0.732050 2.732050 5.000000 255 255 255
-2.031089 3.482052 5.000000 255 255 255
-3.330128 4.232053 5.000000 255 255 255
1.866025 1.232051 3.500000 255 255 255
0.566988 1.982048 3.500000 255 255 255
-0.732050 2.732050 3.500000 255 255 255
-2.031089 3.482052 3.500000 255 255 255
-3.330128 4.232053 3.500000 255 255 255
1.866025 1.232051 2.000000 255 255 255
0.566988 1.982048 2.000000 255 255 255
-0.732050 2.732050 2.000000 255 255 255
-2.031089 3.482052 2.000000 255 255 255
-3.330128 4.232053 2.000000 255 255 255
6.830127 -1.830127 10.000000 255 255 255
5.580127 0.334936 10.000000 255 255 255
4.330127 2.500000 10.000000 255 255 255
3.080127 4.665064 10.000000 255 255 255
1.830127 6.830127 10.000000 255 255 255
6.830127 -1.830127 7.500000 255 255 255
5.580127 0.334936 7.500000 255 255 255
4.330127 2.500000 7.500000 255 255 255
3.080127 4.665064 7.500000 255 255 255
1.830127 6.830127 7.500000 255 255 255
6.830127 -1.830127 5.000000 255 255 255
5.580127 0.334936 5.000000 255 255 255
4.330127 2.500000 5.000000 255 255 255
3.080127 4.665064 5.000000 255 255 255
1.830127 6.830127 5.000000 255 255 255
6.830127 -1.830127 2.500000 255 255 255
5.580127 0.334936 2.500000 255 255 255
4.330127 2.500000 2.500000 255 255 255
3.080127 4.665064 2.500000 255 255 255
1.830127 6.830127 2.500000 255 255 255
6.830127 -1.830127 0.000000 255 255 255
5.580127 0.334936 0.000000 255 255 255
4.330127 2.500000 0.000000 255 255 255
3.080127 4.665064 0.000000 255 255 255
1.830127 6.830127 0.000000 255 255 255
