ply
format ascii 1.0
comment created by 3d_to_ply
element vertex 50
property float32 x
property float32 y
property float32 z
property uint8 red
property uint8 green
property uint8 blue
end_header
15.316110 22.867657 26.000000 255 255 255
10.486485 24.161747 26.000000 255 255 255
5.656854 25.455844 26.000000 255 255 255
0.827244 26.749920 26.000000 255 255 255
-4.002437 28.044067 26.000000 255 255 255
15.316110 22.867657 21.000000 255 255 255
10.486485 24.161747 21.000000 255 255 255
5.656854 25.455844 21.000000 255 255 255
0.827244 26.749920 21.000000 255 255 255
-4.002437 28.044067 21.000000 255 255 255
15.316110 22.867657 16.000000 255 255 255
10.486485 24.161747 16.000000 255 255 255
5.656854 25.455844 16.000000 255 255 255
0.827244 26.749920 16.000000 255 255 255
-4.002437 28.044067 16.000000 255 255 255
15.316110 22.867657 11.000000 255 255 255
10.486485 24.161747 11.000000 255 255 255
5.656854 25.455844 11.000000 255 255 255
0.827244 26.749920 11.000000 255 255 255
-4.002437 28.044067 11.000000 255 255 255
15.316110 22.867657 6.000000 255 255 255
10.486485 24.161747 6.000000 255 255 255
5.656854 25.455844 6.000000 255 255 255
0.827244 26.749920 6.000000 255 255 255
-4.002437 28.044067 6.000000 255 255 255
14.798472 24.799508 24.000000 255 255 255
10.934770 25.834783 24.000000 255 255 255
7.071068 26.870058 24.000000 255 255 255
3.207366 27.905333 24.000000 255 255 255
-0.656337 28.940608 24.000000 255 255 255
14.798472 24.799508 20.000000 255 255 255
10.934770 25.834783 20.000000 255 255 255
7.071068 26.870058 20.000000 255 255 255
3.207366 27.905333 20.000000 255 255 255
-0.656337 28.940608 20.000000 255 255 255
14.798472 24.799508 16.000000 255 255 255
10.934770 25.834783 16.000000 255 255 255
7.071068 26.870058 16.000000 255 255 255
3.207366 27.905333 16.000000 255 255 255
-0.656337 28.940608 16.000000 255 255 255
14.798472 24.799508 12.000000 255 255 255
10.934770 25.834783 12.000000 255 255 255
7.071068 26.870058 12.000000 255 255 255
3.207366 27.905333 12.000000 255 255 255
-0.656337 28.940608 12.000000 255 255 255
14.798472 24.799508 8.000000 255 255 255
10.934770 25.834783 8.000000 255 255 255
7.071068 26.870058 8.000000 255 255 255
3.207366 27.905333 8.000000 255 255 255
-0.656337 28.940608 8.000000 255 255 255
