ply
format ascii 1.0
comment created by 3d_to_ply
element vertex 50
property float32 x
property float32 y
property float32 z
property uint8 red
property uint8 green
property uint8 blue
end_header
9.962369 -19.837270 2.107300 255 255 255
9.267555 -15.083551 3.492948 255 255 255
8.572798 -10.329902 4.878552 255 255 255
7.878024 -5.576231 6.264169 255 255 255
7.183255 -0.822568 7.649782 255 255 255
7.803334 -18.868942 -2.297346 255 255 255
7.108520 -14.115223 -0.911698 255 255 255
6.413762 -9.361574 0.473906 255 255 255
5.718988 -4.607904 1.859523 255 255 255
5.024219 0.145759 3.245136 255 255 255
5.644298 -17.900614 -6.701992 255 255 255
4.949484 -13.146895 -5.316344 255 255 255
4.254727 -8.393246 -3.930740 255 255 255
3.559952 -3.639576 -2.545123 255 255 255
2.865183 1.114087 -1.159510 255 255 255
3.485263 -16.932287 -11.106638 255 255 255
2.790448 -12.178568 -9.720990 255 255 255
2.095691 -7.424919 -8.335386 255 255 255
1.400917 -2.671248 -6.949769 255 255 255
0.706148 2.082415 -5.564156 255 255 255
1.326227 -15.963959 -15.511284 255 255 255
0.631413 -11.210240 -14.125636 255 255 255
-0.063345 -6.456591 -12.740032 255 255 255
-0.758119 -1.702921 -11.354415 255 255 255
-1.452888 3.050742 -9.968802 255 255 255
20.678732 19.103289 3.144889 255 255 255
17.313623 20.166190 5.028043 255 255 255
13.948514 21.229091 6.911198 255 255 255
10.583404 22.291992 8.794352 255 255 255
7.218295 23.354893 10.677506 255 255 255
18.951504 19.877951 -0.378828 255 255 255
15.586394 20.940852 1.504327 255 255 255
12.221285 22.003753 3.387481 255 255 255
8.856176 23.066654 5.270635 255 255 255
5.491066 24.129555 7.153789 255 255 255
17.224275 20.652614 -3.902544 255 255 255
13.859166 21.715515 -2.019390 255 255 255
10.494056 22.778416 -0.136236 255 255 255
7.128947 23.841317 1.746918 255 255 255
3.763838 24.904218 3.630072 255 255 255
15.497047 21.427276 -7.426261 255 255 255
12.131937 22.490177 -5.543107 255 255 255
8.766828 23.553078 -3.659953 255 255 255
5.401719 24.615979 -1.776799 255 255 255
2.036609 25.678880 0.106355 255 255 255
13.769818 22.201938 -10.949978 255 255 255
10.404709 23.264839 -9.066824 255 255 255
7.039599 24.327740 -7.183670 255 255 255
3.674490 25.390641 -5.300516 255 255 255
0.309381 26.453542 -3.417361 255 255 255
