ply
format ascii 1.0
comment created by 3d_to_ply
element vertex 50
property float32 x
property float32 y
property float32 z
property uint8 red
property uint8 green
property uint8 blue
end_header
-10.000000 -13.660300 10.000000 255 255 255
-7.500000 -9.330100 10.000000 255 255 255
-5.000000 -5.000000 10.000000 255 255 255
-2.500000 -0.669870 10.000000 255 255 255
0.000000 3.660250 10.000000 255 255 255
-10.000000 -13.660300 5.000000 255 255 255
-7.500000 -9.330100 5.000000 255 255 255
-5.000000 -5.000000 5.000000 255 255 255
-2.500000 -0.669870 5.000000 255 255 255
0.000000 3.660250 5.000000 255 255 255
-10.000000 -13.660300 0.000000 255 255 255
-7.500000 -9.330100 0.000000 255 255 255
-5.000000 -5.000000 0.000000 255 255 255
-2.500000 -0.669870 0.000000 255 255 255
0.000000 3.660250 0.000000 255 255 255
-10.000000 -13.660300 -5.000000 255 255 255
-7.500000 -9.330100 -5.000000 255 255 255
-5.000000 -5.000000 -5.000000 255 255 255
-2.500000 -0.669870 -5.000000 255 255 255
0.000000 3.660250 -5.000000 255 255 255
-10.000000 -13.660300 -10.000000 255 255 255
-7.500000 -9.330100 -10.000000 255 255 255
-5.000000 -5.000000 -10.000000 255 255 255
-2.500000 -0.669870 -10.000000 255 255 255
0.000000 3.660250 -10.000000 255 255 255
24.000000 8.071800 8.000000 255 255 255
22.000000 11.535900 8.000000 255 255 255
20.000000 15.000000 8.000000 255 255 255
18.000000 18.464100 8.000000 255 255 255
16.000000 21.928200 8.000000 255 255 255
24.000000 8.071800 4.000000 255 255 255
22.000000 11.535900 4.000000 255 255 255
20.000000 15.000000 4.000000 255 255 255
18.000000 18.464100 4.000000 255 255 255
16.000000 21.928200 4.000000 255 255 255
24.000000 8.071800 0.000000 255 255 255
22.000000 11.535900 0.000000 255 255 255
20.000000 15.000000 0.000000 255 255 255
18.000000 18.464100 0.000000 255 255 255
16.000000 21.928200 0.000000 255 255 255
24.000000 8.071800 -4.000000 255 255 255
22.000000 11.535900 -4.000000 255 255 255
20.000000 15.000000 -4.000000 255 255 255
18.000000 18.464100 -4.000000 255 255 255
16.000000 21.928200 -4.000000 255 255 255
24.000000 8.071800 -8.000000 255 255 255
22.000000 11.535900 -8.000000 255 255 255
20.000000 15.000000 -8.000000 255 255 255
18.000000 18.464100 -8.000000 255 255 255
16.000000 21.928200 -8.000000 255 255 255
