ply
format ascii 1.0
comment created by 3d_to_ply
element vertex 50
property float32 x
property float32 y
property float32 z
property uint8 red
property uint8 green
property uint8 blue
end_header
3.696152 8.062178 3.000000 255 255 255
2.397115 8.812175 3.000000 255 255 255
1.098077 9.562177 3.000000 255 255 255
-0.200962 10.312179 3.000000 255 255 255
-1.500001 11.062181 3.000000 255 255 255
3.696152 8.062178 1.500000 255 255 255
2.397115 8.812175 1.500000 255 255 255
1.098077 9.562177 1.500000 255 255 255
-0.200962 10.312179 1.500000 255 255 255
-1.500001 11.062181 1.500000 255 255 255
3.696152 8.062178 0.000000 255 255 255
2.397115 8.812175 0.000000 255 255 255
1.098077 9.562177 0.000000 255 255 255
-0.200962 10.312179 0.000000 255 255 255
-1.500001 11.062181 0.000000 255 255 255
3.696152 8.062178 -1.500000 255 255 255
2.397115 8.812175 -1.500000 255 255 255
1.098077 9.562177 -1.500000 255 255 255
-0.200962 10.312179 -1.500000 255 255 255
-1.500001 11.062181 -1.500000 255 255 255
3.696152 8.062178 -3.000000 255 255 255
2.397115 8.812175 -3.000000 255 255 255
1.098077 9.562177 -3.000000 255 255 255
-0.200962 10.312179 -3.000000 255 255 255
-1.500001 11.062181 -3.000000 255 255 255
8.660254 5.000000 5.000000 255 255 255
7.410254 7.165064 5.000000 255 255 255
6.160254 9.330127 5.000000 255 255 255
4.910254 11.495191 5.000000 255 255 255
3.660254 13.660254 5.000000 255 255 255
8.660254 5.000000 2.500000 255 255 255
7.410254 7.165064 2.500000 255 255 255
6.160254 9.330127 2.500000 255 255 255
4.910254 11.495191 2.500000 255 255 255
3.660254 13.660254 2.500000 255 255 255
8.660254 5.000000 0.000000 255 255 255
7.410254 7.165064 0.000000 255 255 255
6.160254 9.330127 0.000000 255 255 255
4.910254 11.495191 0.000000 255 255 255
3.660254 13.660254 0.000000 255 255 255
8.660254 5.000000 -2.500000 255 255 255
7.410254 7.165064 -2.500000 255 255 255
6.160254 9.330127 -2.500000 255 255 255
4.910254 11.495191 -2.500000 255 255 255
3.660254 13.660254 -2.500000 255 255 255
8.660254 5.000000 -5.000000 255 255 255
7.410254 7.165064 -5.000000 255 255 255
6.160254 9.330127 -5.000000 255 255 255
4.910254 11.495191 -5.000000 255 255 255
3.660254 13.660254 -5.000000 255 255 255
