ply
format ascii 1.0
comment created by 3d_to_ply
element vertex 50
property float32 x
property float32 y
property float32 z
property uint8 red
property uint8 green
property uint8 blue
end_header
15.316110 22.867657 -4.000000 255 255 255
10.486485 24.161747 -4.000000 255 255 255
5.656854 25.455844 -4.000000 255 255 255
0.827244 26.749920 -4.000000 255 255 255
-4.002437 28.044067 -4.000000 255 255 255
15.316110 22.867657 -9.000000 255 255 255
10.486485 24.161747 -9.000000 255 255 255
5.656854 25.455844 -9.000000 255 255 255
0.827244 26.749920 -9.000000 255 255 255
-4.002437 28.044067 -9.000000 255 255 255
15.316110 22.867657 -14.000000 255 255 255
10.486485 24.161747 -14.000000 255 255 255
5.656854 25.455844 -14.000000 255 255 255
0.827244 26.749920 -14.000000 255 255 255
-4.002437 28.044067 -14.000000 255 255 255
15.316110 22.867657 -19.000000 255 255 255
10.486485 24.161747 -19.000000 255 255 255
5.656854 25.455844 -19.000000 255 255 255
0.827244 26.749920 -19.000000 255 255 255
-4.002437 28.044067 -19.000000 255 255 255
15.316110 22.867657 -24.000000 255 255 255
10.486485 24.161747 -24.000000 255 255 255
5.656854 25.455844 -24.000000 255 255 255
0.827244 26.749920 -24.000000 255 255 255
-4.002437 28.044067 -24.000000 255 255 255
14.798472 24.799508 -6.000000 255 255 255
10.934770 25.834783 -6.000000 255 255 255
7.071068 26.870058 -6.000000 255 255 255
3.207366 27.905333 -6.000000 255 255 255
-0.656337 28.940608 -6.000000 255 255 255
14.798472 24.799508 -10.000000 255 255 255
10.934770 25.834783 -10.000000 255 255 255
7.071068 26.870058 -10.000000 255 255 255
3.207366 27.905333 -10.000000 255 255 255
-0.656337 28.940608 -10.000000 255 255 255
14.798472 24.799508 -14.000000 255 255 255
10.934770 25.834783 -14.000000 255 255 255
7.071068 26.870058 -14.000000 255 255 255
3.207366 27.905333 -14.000000 255 255 255
-0.656337 28.940608 -14.000000 255 255 255
14.798472 24.799508 -18.000000 255 255 255
10.934770 25.834783 -18.000000 255 255 255
7.071068 26.870058 -18.000000 255 255 255
3.207366 27.905333 -18.000000 255 255 255
-0.656337 28.940608 -18.000000 255 255 255
14.798472 24.799508 -22.000000 255 255 255
10.934770 25.834783 -22.000000 255 255 255
7.071068 26.870058 -22.000000 255 255 255
3.207366 27.905333 -22.000000 255 255 255
-0.656337 28.940608 -22.000000 255 255 255
