ply
format ascii 1.0
comment created by 3d_to_ply
element vertex 50
property float32 x
property float32 y
property float32 z
property uint8 red
property uint8 green
property uint8 blue
end_header
5.035921 -26.722472 10.000000 255 255 255
0.705758 -24.222408 10.000000 255 255 255
-3.624356 -21.722432 10.000000 255 255 255
-7.954484 -19.222429 10.000000 255 255 255
-12.284608 -16.722435 10.000000 255 255 255
5.035921 -26.722472 5.000000 255 255 255
0.705758 -24.222408 5.000000 255 255 255
-3.624356 -21.722432 5.000000 255 255 255
-7.954484 -19.222429 5.000000 255 255 255
-12.284608 -16.722435 5.000000 255 255 255
5.035921 -26.722472 0.000000 255 255 255
0.705758 -24.222408 0.000000 255 255 255
-3.624356 -21.722432 0.000000 255 255 255
-7.954484 -19.222429 0.000000 255 255 255
-12.284608 -16.722435 0.000000 255 255 255
5.035921 -26.722472 -5.000000 255 255 255
0.705758 -24.222408 -5.000000 255 255 255
-3.624356 -21.722432 -5.000000 255 255 255
-7.954484 -19.222429 -5.000000 255 255 255
-12.284608 -16.722435 -5.000000 255 255 255
5.035921 -26.722472 -10.000000 255 255 255
0.705758 -24.222408 -10.000000 255 255 255
-3.624356 -21.722432 -10.000000 255 255 255
-7.954484 -19.222429 -10.000000 255 255 255
-12.284608 -16.722435 -10.000000 255 255 255
1.571795 -26.722429 8.000000 255 255 255
-1.892306 -24.722430 8.000000 255 255 255
-5.356406 -22.722432 8.000000 255 255 255
-8.820507 -20.722433 8.000000 255 255 255
-12.284608 -18.722435 8.000000 255 255 255
1.571795 -26.722429 4.000000 255 255 255
-1.892306 -24.722430 4.000000 255 255 255
-5.356406 -22.722432 4.000000 255 255 255
-8.820507 -20.722433 4.000000 255 255 255
-12.284608 -18.722435 4.000000 255 255 255
1.571795 -26.722429 0.000000 255 255 255
-1.892306 -24.722430 0.000000 255 255 255
-5.356406 -22.722432 0.000000 255 255 255
-8.820507 -20.722433 0.000000 255 255 255
-12.284608 -18.722435 0.000000 255 255 255
1.571795 -26.722429 -4.000000 255 255 255
-1.892306 -24.722430 -4.000000 255 255 255
-5.356406 -22.722432 -4.000000 255 255 255
-8.820507 -20.722433 -4.000000 255 255 255
-12.284608 -18.722435 -4.000000 255 255 255
1.571795 -26.722429 -8.000000 255 255 255
-1.892306 -24.722430 -8.000000 255 255 255
-5.356406 -22.722432 -8.000000 255 255 255
-8.820507 -20.722433 -8.000000 255 255 255
-12.284608 -18.722435 -8.000000 255 255 255
