ply
format ascii 1.0
comment created by 3d_to_ply
element vertex 125
property float32 x
property float32 y
property float32 z
property uint8 red
property uint8 green
property uint8 blue
end_header
0.232051 3.598076 -10.000000 255 255 255
0.232051 3.598076 -5.000000 255 255 255
0.232051 3.598076 0.000000 255 255 255
0.232051 3.598076 5.000000 255 255 255
0.232051 3.598076 10.000000 255 255 255
-2.267949 7.928203 -10.000000 255 255 255
-2.267949 7.928203 -5.000000 255 255 255
-2.267949 7.928203 0.000000 255 255 255
-2.267949 7.928203 5.000000 255 255 255
-2.267949 7.928203 10.000000 255 255 255
-4.767949 12.258330 -10.000000 255 255 255
-4.767949 12.258330 -5.000000 255 255 255
-4.767949 12.258330 0.000000 255 255 255
-4.767949 12.258330 5.000000 255 255 255
-4.767949 12.258330 10.000000 255 255 255
-7.267949 16.588457 -10.000000 255 255 255
-7.267949 16.588457 -5.000000 255 255 255
-7.267949 16.588457 0.000000 255 255 255
-7.267949 16.588457 5.000000 255 255 255
-7.267949 16.588457 10.000000 255 255 255
-9.767949 20.918584 -10.000000 255 255 255
-9.767949 20.918584 -5.000000 255 255 255
-9.767949 20.918584 0.000000 255 255 255
-9.767949 20.918584 5.000000 255 255 255
-9.767949 20.918584 10.000000 255 255 255
4.562178 6.098076 -10.000000 255 255 255
4.562178 6.098076 -5.000000 255 255 255
4.562178 6.098076 0.000000 255 255 255
4.562178 6.098076 5.000000 255 255 255
4.562178 6.098076 10.000000 255 255 255
2.062178 10.428203 -10.000000 255 255 255
2.062178 10.428203 -5.000000 255 255 255
2.062178 10.428203 0.000000 255 255 255
2.062178 10.428203 5.000000 255 255 255
2.062178 10.428203 10.000000 255 255 255
-0.437822 14.758330 -10.000000 255 255 255
-0.437822 14.758330 -5.000000 255 255 255
-0.437822 14.758330 0.000000 255 255 255
-0.437822 14.758330 5.000000 255 255 255
-0.437822 14.758330 10.000000 255 255 255
-2.937822 19.088457 -10.000000 255 255 255
-2.937822 19.088457 -5.000000 255 255 255
-2.937822 19.088457 0.000000 255 255 255
-2.937822 19.088457 5.000000 255 255 255
-2.937822 19.088457 10.000000 255 255 255
-5.437822 23.418584 -10.000000 255 255 255
-5.437822 23.418584 -5.000000 255 255 255
-5.437822 23.418584 0.000000 255 255 255
-5.437822 23.418584 5.000000 255 255 255
-5.437822 23.418584 10.000000 255 255 255
8.892305 8.598076 -10.000000 255 255 255
8.892305 8.598076 -5.000000 255 255 255
8.892305 8.598076 0.000000 255 255 255
8.892305 8.598076 5.000000 255 255 255
8.892305 8.598076 10.000000 255 255 255
6.392305 12.928203 -10.000000 255 255 255
6.392305 12.928203 -5.000000 255 255 255
6.392305 12.928203 0.000000 255 255 255
6.392305 12.928203 5.000000 255 255 255
6.392305 12.928203 10.000000 255 255 255
3.892305 17.258330 -10.000000 255 255 255
3.892305 17.258330 -5.000000 255 255 255
3.892305 17.258330 0.000000 255 255 255
3.892305 17.258330 5.000000 255 255 255
3.892305 17.258330 10.000000 255 255 255
1.392305 21.588457 -10.000000 255 255 255
1.392305 21.588457 -5.000000 255 255 255
1.392305 21.588457 0.000000 255 255 255
1.392305 21.588457 5.000000 255 255 255
1.392305 21.588457 10.000000 255 255 255
-1.107695 25.918584 -10.000000 255 255 255
-1.107695 25.918584 -5.000000 255 255 255
-1.107695 25.918584 0.000000 255 255 255
-1.107695 25.918584 5.000000 255 255 255
-1.107695 25.918584 10.000000 255 255 255
13.222432 11.098076 -10.000000 255 255 255
13.222432 11.098076 -5.000000 255 255 255
13.222432 11.098076 0.000000 255 255 255
13.222432 11.098076 5.000000 255 255 255
13.222432 11.098076 10.000000 255 255 255
10.722432 15.428203 -10.000000 255 255 255
10.722432 15.428203 -5.000000 255 255 255
10.722432 15.428203 0.000000 255 255 255
10.722432 15.428203 5.000000 255 255 255
10.722432 15.428203 10.000000 255 255 255
8.222432 19.758330 -10.000000 255 255 255
8.222432 19.758330 -5.000000 255 255 255
8.222432 19.758330 0.000000 255 255 255
8.222432 19.758330 5.000000 255 255 255
8.222432 19.758330 10.000000 255 255 255
5.722432 24.088457 -10.000000 255 255 255
5.722432 24.088457 -5.000000 255 255 255
5.722432 24.088457 0.000000 255 255 255
5.722432 24.088457 5.000000 255 255 255
5.722432 24.088457 10.000000 255 255 255
3.222432 28.418584 -10.000000 255 255 255
3.222432 28.418584 -5.000000 255 255 255
3.222432 28.418584 0.000000 255 255 255
3.222432 28.418584 5.000000 255 255 255
3.222432 28.418584 10.000000 255 255 255
17.552559 13.598076 -10.000000 255 255 255
17.552559 13.598076 -5.000000 255 255 255
17.552559 13.598076 0.000000 255 255 255
17.552559 13.598076 5.000000 255 255 255
17.552559 13.598076 10.000000 255 255 255
15.052559 17.928203 -10.000000 255 255 255
15.052559 17.928203 -5.000000 255 255 255
15.052559 17.928203 0.000000 255 255 255
15.052559 17.928203 5.000000 255 255 255
15.052559 17.928203 10.000000 255 255 255
12.552559 22.258330 -10.000000 255 255 255
12.552559 22.258330 -5.000000 255 255 255
12.552559 22.258330 0.000000 255 255 255
12.552559 22.258330 5.000000 255 255 255
12.552559 22.258330 10.000000 255 255 255
10.052559 26.588457 -10.000000 255 255 255
10.052559 26.588457 -5.000000 255 255 255
10.052559 26.588457 0.000000 255 255 255
10.052559 26.588457 5.000000 255 255 255
10.052559 26.588457 10.000000 255 255 255
7.552559 30.918584 -10.000000 255 255 255
7.552559 30.918584 -5.000000 255 255 255
7.552559 30.918584 0.000000 255 255 255
7.552559 30.918584 5.000000 255 255 255
7.552559 30.918584 10.000000 255 255 255
