ply
format ascii 1.0
comment created by 3d_to_ply
element vertex 50
property float32 x
property float32 y
property float32 z
property uint8 red
property uint8 green
property uint8 blue
end_header
-2.303850 5.990385 10.000000 255 255 255
-6.633973 8.490378 10.000000 255 255 255
-10.964102 10.990381 10.000000 255 255 255
-15.294215 13.490358 10.000000 255 255 255
-19.624379 15.990421 10.000000 255 255 255
-2.303850 5.990385 5.000000 255 255 255
-6.633973 8.490378 5.000000 255 255 255
-10.964102 10.990381 5.000000 255 255 255
-15.294215 13.490358 5.000000 255 255 255
-19.624379 15.990421 5.000000 255 255 255
-2.303850 5.990385 0.000000 255 255 255
-6.633973 8.490378 0.000000 255 255 255
-10.964102 10.990381 0.000000 255 255 255
-15.294215 13.490358 0.000000 255 255 255
-19.624379 15.990421 0.000000 255 255 255
-2.303850 5.990385 -5.000000 255 255 255
-6.633973 8.490378 -5.000000 255 255 255
-10.964102 10.990381 -5.000000 255 255 255
-15.294215 13.490358 -5.000000 255 255 255
-19.624379 15.990421 -5.000000 255 255 255
-2.303850 5.990385 -10.000000 255 255 255
-6.633973 8.490378 -10.000000 255 255 255
-10.964102 10.990381 -10.000000 255 255 255
-15.294215 13.490358 -10.000000 255 255 255
-19.624379 15.990421 -10.000000 255 255 255
-10.866027 8.820511 8.000000 255 255 255
-14.330128 10.820509 8.000000 255 255 255
-17.794229 12.820508 8.000000 255 255 255
-21.258329 14.820507 8.000000 255 255 255
-24.722430 16.820505 8.000000 255 255 255
-10.866027 8.820511 4.000000 255 255 255
-14.330128 10.820509 4.000000 255 255 255
-17.794229 12.820508 4.000000 255 255 255
-21.258329 14.820507 4.000000 255 255 255
-24.722430 16.820505 4.000000 255 255 255
-10.866027 8.820511 0.000000 255 255 255
-14.330128 10.820509 0.000000 255 255 255
-17.794229 12.820508 0.000000 255 255 255
-21.258329 14.820507 0.000000 255 255 255
-24.722430 16.820505 0.000000 255 255 255
-10.866027 8.820511 -4.000000 255 255 255
-14.330128 10.820509 -4.000000 255 255 255
-17.794229 12.820508 -4.000000 255 255 255
-21.258329 14.820507 -4.000000 255 255 255
-24.722430 16.820505 -4.000000 255 255 255
-10.866027 8.820511 -8.000000 255 255 255
-14.330128 10.820509 -8.000000 255 255 255
-17.794229 12.820508 -8.000000 255 255 255
-21.258329 14.820507 -8.000000 255 255 255
-24.722430 16.820505 -8.000000 255 255 255
