ply
format ascii 1.0
comment created by 3d_to_ply
element vertex 50
property float32 x
property float32 y
property float32 z
property uint8 red
property uint8 green
property uint8 blue
end_header
2.232050 0.133975 3.000000 255 255 255
1.482050 1.433010 3.000000 255 255 255
0.732051 2.732050 3.000000 255 255 255
-0.017949 4.031090 3.000000 255 255 255
-0.767949 5.330130 3.000000 255 255 255
2.232050 0.133975 1.500000 255 255 255
1.482050 1.433010 1.500000 255 255 255
0.732051 2.732050 1.500000 255 255 255
-0.017949 4.031090 1.500000 255 255 255
-0.767949 5.330130 1.500000 255 255 255
2.232050 0.133975 0.000000 255 255 255
1.482050 1.433010 0.000000 255 255 255
0.732051 2.732050 0.000000 255 255 255
-0.017949 4.031090 0.000000 255 255 255
-0.767949 5.330130 0.000000 255 255 255
2.232050 0.133975 -1.500000 255 255 255
1.482050 1.433010 -1.500000 255 255 255
0.732051 2.732050 -1.500000 255 255 255
-0.017949 4.031090 -1.500000 255 255 255
-0.767949 5.330130 -1.500000 255 255 255
2.232050 0.133975 -3.000000 255 255 255
1.482050 1.433010 -3.000000 255 255 255
0.732051 2.732050 -3.000000 255 255 255
-0.017949 4.031090 -3.000000 255 255 255
-0.767949 5.330130 -3.000000 255 255 255
5.000000 -5.000000 5.000000 255 255 255
5.000000 -2.500000 5.000000 255 255 255
5.000000 0.000000 5.000000 255 255 255
5.000000 2.500000 5.000000 255 255 255
5.000000 5.000000 5.000000 255 255 255
5.000000 -5.000000 2.500000 255 255 255
5.000000 -2.500000 2.500000 255 255 255
5.000000 0.000000 2.500000 255 255 255
5.000000 2.500000 2.500000 255 255 255
5.000000 5.000000 2.500000 255 255 255
5.000000 -5.000000 0.000000 255 255 255
5.000000 -2.500000 0.000000 255 255 255
5.000000 0.000000 0.000000 255 255 255
5.000000 2.500000 0.000000 255 255 255
5.000000 5.000000 0.000000 255 255 255
5.000000 -5.000000 -2.500000 255 255 255
5.000000 -2.500000 -2.500000 255 255 255
5.000000 0.000000 -2.500000 255 255 255
5.000000 2.500000 -2.500000 255 255 255
5.000000 5.000000 -2.500000 255 255 255
5.000000 -5.000000 -5.000000 255 255 255
5.000000 -2.500000 -5.000000 255 255 255
5.000000 0.000000 -5.000000 255 255 255
5.000000 2.500000 -5.000000 255 255 255
5.000000 5.000000 -5.000000 255 255 255
