ply
format ascii 1.0
element vertex 125
property float x
property float y
property float z
end_header
-8.00703 -1.76599 -9.21805
-7.61664 -1.79328 -4.23339
-7.22625 -1.82056 0.751274
-6.83586 -1.84784 5.73594
-6.44547 -1.87512 10.7206
-6.81738 3.08996 -9.28464
-6.42699 3.06268 -4.29998
-6.0366 3.03539 0.68468
-5.6462 3.00811 5.66934
-5.25581 2.98083 10.654
-5.62772 7.94591 -9.35124
-5.23733 7.91863 -4.36657
-4.84694 7.89135 0.618087
-4.45655 7.86406 5.60275
-4.06616 7.83678 10.5874
-4.43806 12.8019 -9.41783
-4.04767 12.7746 -4.43317
-3.65728 12.7473 0.551493
-3.26689 12.72 5.53615
-2.8765 12.6927 10.5208
-3.24841 17.6578 -9.48442
-2.85802 17.6305 -4.49976
-2.46762 17.6033 0.484899
-2.07723 17.576 5.46956
-1.68684 17.5487 10.4542
-3.16634 -2.9572 -9.60368
-2.77595 -2.98448 -4.61902
-2.38556 -3.01177 0.365638
-1.99517 -3.03905 5.3503
-1.60478 -3.06633 10.335
-1.97668 1.89875 -9.67028
-1.58629 1.87147 -4.68562
-1.1959 1.84419 0.299045
-0.805511 1.8169 5.28371
-0.41512 1.78962 10.2684
-0.787027 6.75471 -9.73687
-0.396636 6.72742 -4.75221
-0.00624492 6.70014 0.232451
0.384146 6.67286 5.21711
0.774537 6.64558 10.2018
0.40263 11.6107 -9.80347
0.793021 11.5834 -4.8188
1.18341 11.5561 0.165858
1.5738 11.5288 5.15052
1.96419 11.5015 10.1352
1.59229 16.4666 -9.87006
1.98268 16.4393 -4.8854
2.37307 16.412 0.099264
2.76346 16.3848 5.08393
3.15385 16.3575 10.0686
1.67435 -4.14841 -9.98932
2.06474 -4.17569 -5.00466
2.45513 -4.20297 -0.0199972
2.84553 -4.23026 4.96466
3.23592 -4.25754 9.94933
2.86401 0.707547 -10.0559
3.2544 0.680264 -5.07125
3.64479 0.652981 -0.0865908
4.03518 0.625698 4.89807
4.42557 0.598415 9.88273
4.05367 5.5635 -10.1225
4.44406 5.53622 -5.13785
4.83445 5.50893 -0.153184
5.22484 5.48165 4.83148
5.61523 5.45437 9.81614
5.24332 10.4195 -10.1891
5.63371 10.3922 -5.20444
6.02411 10.3649 -0.219778
6.4145 10.3376 4.76488
6.80489 10.3103 9.74955
6.43298 15.2754 -10.2557
6.82337 15.2481 -5.27103
7.21376 15.2208 -0.286371
7.60415 15.1936 4.69829
7.99454 15.1663 9.68295
6.51505 -5.33961 -10.375
6.90544 -5.3669 -5.39029
7.29583 -5.39418 -0.405633
7.68622 -5.42146 4.57903
8.07661 -5.44874 9.56369
7.7047 -0.48366 -10.4415
8.09509 -0.510943 -5.45689
8.48548 -0.538226 -0.472226
8.87588 -0.565509 4.51244
9.26627 -0.592792 9.4971
8.89436 4.37229 -10.5081
9.28475 4.34501 -5.52348
9.67514 4.31773 -0.53882
10.0655 4.29044 4.44584
10.4559 4.26316 9.4305
10.084 9.22825 -10.5747
10.4744 9.20096 -5.59007
10.8648 9.17368 -0.605413
11.2552 9.1464 4.37925
11.6456 9.11911 9.36391
11.2737 14.0842 -10.6413
11.6641 14.0569 -5.65667
12.0545 14.0296 -0.672007
12.4448 14.0024 4.31265
12.8352 13.9751 9.29732
11.3557 -6.53082 -10.7606
11.7461 -6.5581 -5.77593
12.1365 -6.58539 -0.791268
12.5269 -6.61267 4.19339
12.9173 -6.63995 9.17805
12.5454 -1.67487 -10.8272
12.9358 -1.70215 -5.84252
13.3262 -1.72943 -0.857862
13.7166 -1.75672 4.1268
14.107 -1.784 9.11146
13.7351 3.18109 -10.8938
14.1254 3.1538 -5.90912
14.5158 3.12652 -0.924455
14.9062 3.09924 4.06021
15.2966 3.07195 9.04487
14.9247 8.03704 -10.9604
15.3151 8.00976 -5.97571
15.7055 7.98247 -0.991049
16.0959 7.95519 3.99361
16.4863 7.92791 8.97827
16.1144 12.893 -11.027
16.5048 12.8657 -6.0423
16.8951 12.8384 -1.05764
17.2855 12.8111 3.92702
17.6759 12.7839 8.91168
