ply
format ascii 1.0
element vertex 1331
property float x
property float y
property float z
end_header
-9.5301 -10.4786 -9.93718
-9.52661 -10.4698 -7.93721
-9.52312 -10.461 -5.93723
-9.51963 -10.4521 -3.93725
-9.51614 -10.4433 -1.93727
-9.51265 -10.4345 0.0627025
-9.50916 -10.4257 2.06268
-9.50567 -10.4168 4.06266
-9.50218 -10.408 6.06263
-9.49869 -10.3992 8.06261
-9.4952 -10.3904 10.0626
-9.62364 -8.48082 -9.94584
-9.62015 -8.47199 -7.94586
-9.61666 -8.46317 -5.94588
-9.61317 -8.45434 -3.94591
-9.60968 -8.44552 -1.94593
-9.60619 -8.43669 0.0540498
-9.6027 -8.42787 2.05403
-9.59921 -8.41904 4.054
-9.59572 -8.41022 6.05398
-9.59223 -8.40139 8.05396
-9.58874 -8.39256 10.0539
-9.71717 -6.48303 -9.95449
-9.71368 -6.4742 -7.95451
-9.71019 -6.46538 -5.95454
-9.7067 -6.45655 -3.95456
-9.70321 -6.44772 -1.95458
-9.69972 -6.4389 0.0453971
-9.69623 -6.43007 2.04537
-9.69274 -6.42125 4.04535
-9.68925 -6.41242 6.04533
-9.68576 -6.4036 8.04531
-9.68227 -6.39477 10.0453
-9.8107 -4.48523 -9.96314
-9.80721 -4.47641 -7.96317
-9.80372 -4.46758 -5.96319
-9.80023 -4.45876 -3.96321
-9.79674 -4.44993 -1.96323
-9.79325 -4.44111 0.0367443
-9.78976 -4.43228 2.03672
-9.78627 -4.42345 4.0367
-9.78278 -4.41463 6.03668
-9.77929 -4.4058 8.03665
-9.7758 -4.39698 10.0366
-9.90424 -2.48744 -9.9718
-9.90075 -2.47862 -7.97182
-9.89726 -2.46979 -5.97184
-9.89377 -2.46096 -3.97186
-9.89028 -2.45214 -1.97189
-9.88678 -2.44331 0.0280916
-9.88329 -2.43449 2.02807
-9.8798 -2.42566 4.02805
-9.87631 -2.41684 6.02802
-9.87282 -2.40801 8.028
-9.86933 -2.39919 10.028
-9.99777 -0.489648 -9.98045
-9.99428 -0.480823 -7.98047
-9.99079 -0.471997 -5.98049
-9.9873 -0.463171 -3.98052
-9.98381 -0.454346 -1.98054
-9.98032 -0.44552 0.0194389
-9.97683 -0.436695 2.01942
-9.97334 -0.427869 4.01939
-9.96985 -0.419043 6.01937
-9.96636 -0.410218 8.01935
-9.96287 -0.401392 10.0193
-10.0913 1.50814 -9.9891
-10.0878 1.51697 -7.98912
-10.0843 1.5258 -5.98915
-10.0808 1.53462 -3.98917
-10.0773 1.54345 -1.98919
-10.0739 1.55227 0.0107862
-10.0704 1.5611 2.01076
-10.0669 1.56992 4.01074
-10.0634 1.57875 6.01072
-10.0599 1.58758 8.0107
-10.0564 1.5964 10.0107
-10.1848 3.50594 -9.99775
-10.1813 3.51476 -7.99778
-10.1779 3.52359 -5.9978
-10.1744 3.53241 -3.99782
-10.1709 3.54124 -1.99784
-10.1674 3.55007 0.00213345
-10.1639 3.55889 2.00211
-10.1604 3.56772 4.00209
-10.1569 3.57654 6.00207
-10.1534 3.58537 8.00204
-10.1499 3.59419 10.002
-10.2784 5.50373 -10.0064
-10.2749 5.51256 -8.00643
-10.2714 5.52138 -6.00645
-10.2679 5.53021 -4.00647
-10.2644 5.53903 -2.0065
-10.2609 5.54786 -0.00651927
-10.2574 5.55668 1.99346
-10.2539 5.56551 3.99344
-10.2504 5.57434 5.99341
-10.247 5.58316 7.99339
-10.2435 5.59199 9.99337
-10.3719 7.50152 -10.0151
-10.3684 7.51035 -8.01508
-10.3649 7.51917 -6.0151
-10.3614 7.528 -4.01513
-10.3579 7.53683 -2.01515
-10.3544 7.54565 -0.015172
-10.351 7.55448 1.98481
-10.3475 7.5633 3.98478
-10.344 7.57213 5.98476
-10.3405 7.58095 7.98474
-10.337 7.58978 9.98472
-10.4654 9.49932 -10.0237
-10.4619 9.50814 -8.02373
-10.4585 9.51697 -6.02376
-10.455 9.52579 -4.02378
-10.4515 9.53462 -2.0238
-10.448 9.54344 -0.0238247
-10.4445 9.55227 1.97615
-10.441 9.5611 3.97613
-10.4375 9.56992 5.97611
-10.434 9.57875 7.97609
-10.4305 9.58757 9.97606
-7.5323 -10.3851 -9.94108
-7.5288 -10.3763 -7.94111
-7.52531 -10.3674 -5.94113
-7.52182 -10.3586 -3.94115
-7.51833 -10.3498 -1.94117
-7.51484 -10.341 0.0588035
-7.51135 -10.3321 2.05878
-7.50786 -10.3233 4.05876
-7.50437 -10.3145 6.05874
-7.50088 -10.3057 8.05871
-7.49739 -10.2968 10.0587
-7.62583 -8.3873 -9.94974
-7.62234 -8.37848 -7.94976
-7.61885 -8.36965 -5.94978
-7.61536 -8.36083 -3.9498
-7.61187 -8.352 -1.94983
-7.60838 -8.34318 0.0501507
-7.60489 -8.33435 2.05013
-7.6014 -8.32552 4.05011
-7.59791 -8.3167 6.05008
-7.59442 -8.30787 8.05006
-7.59093 -8.29905 10.05
-7.71936 -6.38951 -9.95839
-7.71587 -6.38068 -7.95841
-7.71238 -6.37186 -5.95843
-7.70889 -6.36303 -3.95846
-7.7054 -6.35421 -1.95848
-7.70191 -6.34538 0.041498
-7.69842 -6.33656 2.04148
-7.69493 -6.32773 4.04145
-7.69144 -6.31891 6.04143
-7.68795 -6.31008 8.04141
-7.68446 -6.30125 10.0414
-7.81289 -4.39172 -9.96704
-7.8094 -4.38289 -7.96706
-7.80591 -4.37407 -5.96709
-7.80242 -4.36524 -3.96711
-7.79893 -4.35641 -1.96713
-7.79544 -4.34759 0.0328453
-7.79195 -4.33876 2.03282
-7.78846 -4.32994 4.0328
-7.78497 -4.32111 6.03278
-7.78148 -4.31229 8.03276
-7.77799 -4.30346 10.0327
-7.90643 -2.39392 -9.97569
-7.90294 -2.3851 -7.97572
-7.89945 -2.37627 -5.97574
-7.89596 -2.36745 -3.97576
-7.89247 -2.35862 -1.97578
-7.88898 -2.3498 0.0241926
-7.88549 -2.34097 2.02417
-7.882 -2.33215 4.02415
-7.87851 -2.32332 6.02413
-7.87502 -2.31449 8.0241
-7.87153 -2.30567 10.0241
-7.99996 -0.396131 -9.98435
-7.99647 -0.387306 -7.98437
-7.99298 -0.37848 -5.98439
-7.98949 -0.369655 -3.98442
-7.986 -0.360829 -1.98444
-7.98251 -0.352003 0.0155399
-7.97902 -0.343178 2.01552
-7.97553 -0.334352 4.01549
-7.97204 -0.325527 6.01547
-7.96855 -0.316701 8.01545
-7.96506 -0.307875 10.0154
-8.09349 1.60166 -9.993
-8.09 1.61049 -7.99302
-8.08651 1.61931 -5.99305
-8.08302 1.62814 -3.99307
-8.07953 1.63696 -1.99309
-8.07604 1.64579 0.00688714
-8.07255 1.65462 2.00686
-8.06906 1.66344 4.00684
-8.06557 1.67227 6.00682
-8.06208 1.68109 8.0068
-8.05859 1.68992 10.0068
-8.18703 3.59945 -10.0017
-8.18354 3.60828 -8.00168
-8.18005 3.61711 -6.0017
-8.17656 3.62593 -4.00172
-8.17307 3.63476 -2.00174
-8.16958 3.64358 -0.00176559
-8.16609 3.65241 1.99821
-8.16259 3.66123 3.99819
-8.1591 3.67006 5.99817
-8.15561 3.67888 7.99814
-8.15212 3.68771 9.99812
-8.28056 5.59725 -10.0103
-8.27707 5.60607 -8.01033
-8.27358 5.6149 -6.01035
-8.27009 5.62372 -4.01037
-8.2666 5.63255 -2.0104
-8.26311 5.64138 -0.0104183
-8.25962 5.6502 1.98956
-8.25613 5.65903 3.98954
-8.25264 5.66785 5.98951
-8.24915 5.67668 7.98949
-8.24566 5.6855 9.98947
-8.37409 7.59504 -10.019
-8.3706 7.60387 -8.01898
-8.36711 7.61269 -6.019
-8.36362 7.62152 -4.01903
-8.36013 7.63034 -2.01905
-8.35664 7.63917 -0.019071
-8.35315 7.64799 1.98091
-8.34966 7.65682 3.98088
-8.34617 7.66565 5.98086
-8.34268 7.67447 7.98084
-8.33919 7.6833 9.98082
-8.46762 9.59283 -10.0276
-8.46413 9.60166 -8.02763
-8.46064 9.61048 -6.02766
-8.45715 9.61931 -4.02768
-8.45366 9.62814 -2.0277
-8.45017 9.63696 -0.0277238
-8.44668 9.64579 1.97225
-8.44319 9.65461 3.97223
-8.4397 9.66344 5.97221
-8.43621 9.67226 7.97219
-8.43272 9.68109 9.97216
-5.53449 -10.2916 -9.94498
-5.531 -10.2828 -7.94501
-5.52751 -10.2739 -5.94503
-5.52402 -10.2651 -3.94505
-5.52053 -10.2563 -1.94507
-5.51704 -10.2475 0.0549044
-5.51355 -10.2386 2.05488
-5.51006 -10.2298 4.05486
-5.50657 -10.221 6.05484
-5.50308 -10.2121 8.05481
-5.49958 -10.2033 10.0548
-5.62802 -8.29379 -9.95364
-5.62453 -8.28496 -7.95366
-5.62104 -8.27614 -5.95368
-5.61755 -8.26731 -3.9537
-5.61406 -8.25848 -1.95373
-5.61057 -8.24966 0.0462517
-5.60708 -8.24083 2.04623
-5.60359 -8.23201 4.04621
-5.6001 -8.22318 6.04618
-5.59661 -8.21436 8.04616
-5.59312 -8.20553 10.0461
-5.72155 -6.29599 -9.96229
-5.71806 -6.28717 -7.96231
-5.71457 -6.27834 -5.96233
-5.71108 -6.26952 -3.96236
-5.70759 -6.26069 -1.96238
-5.7041 -6.25187 0.037599
-5.70061 -6.24304 2.03758
-5.69712 -6.23421 4.03755
-5.69363 -6.22539 6.03753
-5.69014 -6.21656 8.03751
-5.68665 -6.20774 10.0375
-5.81509 -4.2982 -9.97094
-5.8116 -4.28937 -7.97096
-5.80811 -4.28055 -5.97099
-5.80461 -4.27172 -3.97101
-5.80112 -4.2629 -1.97103
-5.79763 -4.25407 0.0289463
-5.79414 -4.24525 2.02892
-5.79065 -4.23642 4.0289
-5.78716 -4.2276 6.02888
-5.78367 -4.21877 8.02886
-5.78018 -4.20994 10.0288
-5.90862 -2.30041 -9.97959
-5.90513 -2.29158 -7.97962
-5.90164 -2.28276 -5.97964
-5.89815 -2.27393 -3.97966
-5.89466 -2.26511 -1.97968
-5.89117 -2.25628 0.0202935
-5.88768 -2.24745 2.02027
-5.88419 -2.23863 4.02025
-5.8807 -2.2298 6.02023
-5.87721 -2.22098 8.0202
-5.87372 -2.21215 10.0202
-6.00215 -0.302614 -9.98825
-5.99866 -0.293789 -7.98827
-5.99517 -0.284963 -5.98829
-5.99168 -0.276138 -3.98831
-5.98819 -0.267312 -1.98834
-5.9847 -0.258487 0.0116408
-5.98121 -0.249661 2.01162
-5.97772 -0.240835 4.0116
-5.97423 -0.23201 6.01157
-5.97074 -0.223184 8.01155
-5.96725 -0.214359 10.0115
-6.09568 1.69518 -9.9969
-6.09219 1.704 -7.99692
-6.0887 1.71283 -5.99694
-6.08521 1.72166 -3.99697
-6.08172 1.73048 -1.99699
-6.07823 1.73931 0.0029881
-6.07474 1.74813 2.00297
-6.07125 1.75696 4.00294
-6.06776 1.76578 6.00292
-6.06427 1.77461 8.0029
-6.06078 1.78343 10.0029
-6.18922 3.69297 -10.0056
-6.18573 3.7018 -8.00557
-6.18224 3.71062 -6.0056
-6.17875 3.71945 -4.00562
-6.17526 3.72827 -2.00564
-6.17177 3.7371 -0.00566462
-6.16828 3.74592 1.99431
-6.16479 3.75475 3.99429
-6.1613 3.76358 5.99427
-6.15781 3.7724 7.99425
-6.15432 3.78123 9.99422
-6.28275 5.69076 -10.0142
-6.27926 5.69959 -8.01423
-6.27577 5.70842 -6.01425
-6.27228 5.71724 -4.01427
-6.26879 5.72607 -2.01429
-6.2653 5.73489 -0.0143173
-6.26181 5.74372 1.98566
-6.25832 5.75254 3.98564
-6.25483 5.76137 5.98562
-6.25134 5.77019 7.98559
-6.24785 5.77902 9.98557
-6.37628 7.68856 -10.0229
-6.37279 7.69738 -8.02288
-6.3693 7.70621 -6.0229
-6.36581 7.71503 -4.02293
-6.36232 7.72386 -2.02295
-6.35883 7.73269 -0.0229701
-6.35534 7.74151 1.97701
-6.35185 7.75034 3.97698
-6.34836 7.75916 5.97696
-6.34487 7.76799 7.97694
-6.34138 7.77681 9.97692
-6.46982 9.68635 -10.0315
-6.46633 9.69518 -8.03153
-6.46284 9.704 -6.03156
-6.45935 9.71283 -4.03158
-6.45586 9.72165 -2.0316
-6.45237 9.73048 -0.0316228
-6.44888 9.7393 1.96835
-6.44539 9.74813 3.96833
-6.4419 9.75696 5.96831
-6.4384 9.76578 7.96829
-6.43491 9.77461 9.96826
-3.53668 -10.1981 -9.94888
-3.53319 -10.1892 -7.9489
-3.5297 -10.1804 -5.94893
-3.52621 -10.1716 -3.94895
-3.52272 -10.1628 -1.94897
-3.51923 -10.1539 0.0510054
-3.51574 -10.1451 2.05098
-3.51225 -10.1363 4.05096
-3.50876 -10.1275 6.05094
-3.50527 -10.1186 8.05092
-3.50178 -10.1098 10.0509
-3.63021 -8.20027 -9.95753
-3.62672 -8.19144 -7.95756
-3.62323 -8.18262 -5.95758
-3.61974 -8.17379 -3.9576
-3.61625 -8.16497 -1.95762
-3.61276 -8.15614 0.0423527
-3.60927 -8.14732 2.04233
-3.60578 -8.13849 4.04231
-3.60229 -8.12966 6.04229
-3.5988 -8.12084 8.04226
-3.59531 -8.11201 10.0422
-3.72374 -6.20248 -9.96619
-3.72025 -6.19365 -7.96621
-3.71676 -6.18483 -5.96623
-3.71327 -6.176 -3.96626
-3.70978 -6.16717 -1.96628
-3.70629 -6.15835 0.0336999
-3.7028 -6.14952 2.03368
-3.69931 -6.1407 4.03365
-3.69582 -6.13187 6.03363
-3.69233 -6.12305 8.03361
-3.68884 -6.11422 10.0336
-3.81728 -4.20468 -9.97484
-3.81379 -4.19586 -7.97486
-3.8103 -4.18703 -5.97489
-3.80681 -4.17821 -3.97491
-3.80332 -4.16938 -1.97493
-3.79983 -4.16056 0.0250472
-3.79634 -4.15173 2.02502
-3.79285 -4.1429 4.025
-3.78936 -4.13408 6.02498
-3.78587 -4.12525 8.02496
-3.78238 -4.11643 10.0249
-3.91081 -2.20689 -9.98349
-3.90732 -2.19807 -7.98352
-3.90383 -2.18924 -5.98354
-3.90034 -2.18041 -3.98356
-3.89685 -2.17159 -1.98358
-3.89336 -2.16276 0.0163945
-3.88987 -2.15394 2.01637
-3.88638 -2.14511 4.01635
-3.88289 -2.13629 6.01633
-3.8794 -2.12746 8.0163
-3.87591 -2.11863 10.0163
-4.00434 -0.209098 -9.99215
-4.00085 -0.200272 -7.99217
-3.99736 -0.191446 -5.99219
-3.99387 -0.182621 -3.99221
-3.99038 -0.173795 -1.99224
-3.98689 -0.16497 0.00774178
-3.9834 -0.156144 2.00772
-3.97991 -0.147319 4.0077
-3.97642 -0.138493 6.00767
-3.97293 -0.129667 8.00765
-3.96944 -0.120842 10.0076
-4.09788 1.7887 -10.0008
-4.09439 1.79752 -8.00082
-4.0909 1.80635 -6.00084
-4.08741 1.81517 -4.00087
-4.08392 1.824 -2.00089
-4.08042 1.83282 -0.000910941
-4.07693 1.84165 1.99907
-4.07344 1.85047 3.99904
-4.06995 1.8593 5.99902
-4.06646 1.86813 7.999
-4.06297 1.87695 9.99898
-4.19141 3.78649 -10.0095
-4.18792 3.79531 -8.00947
-4.18443 3.80414 -6.0095
-4.18094 3.81297 -4.00952
-4.17745 3.82179 -2.00954
-4.17396 3.83062 -0.00956366
-4.17047 3.83944 1.99041
-4.16698 3.84827 3.99039
-4.16349 3.85709 5.99037
-4.16 3.86592 7.99035
-4.15651 3.87474 9.99032
-4.28494 5.78428 -10.0181
-4.28145 5.79311 -8.01813
-4.27796 5.80193 -6.01815
-4.27447 5.81076 -4.01817
-4.27098 5.81958 -2.01819
-4.26749 5.82841 -0.0182164
-4.264 5.83723 1.98176
-4.26051 5.84606 3.98174
-4.25702 5.85489 5.98172
-4.25353 5.86371 7.98169
-4.25004 5.87254 9.98167
-4.37847 7.78207 -10.0268
-4.37498 7.7909 -8.02678
-4.37149 7.79973 -6.0268
-4.368 7.80855 -4.02682
-4.36451 7.81738 -2.02685
-4.36102 7.8262 -0.0268691
-4.35753 7.83503 1.97311
-4.35404 7.84385 3.97309
-4.35055 7.85268 5.97306
-4.34706 7.8615 7.97304
-4.34357 7.87033 9.97302
-4.47201 9.77987 -10.0354
-4.46852 9.78869 -8.03543
-4.46503 9.79752 -6.03545
-4.46154 9.80634 -4.03548
-4.45805 9.81517 -2.0355
-4.45456 9.824 -0.0355218
-4.45107 9.83282 1.96446
-4.44758 9.84165 3.96443
-4.44409 9.85047 5.96441
-4.4406 9.8593 7.96439
-4.43711 9.86812 9.96437
-1.53887 -10.1045 -9.95278
-1.53538 -10.0957 -7.9528
-1.53189 -10.0869 -5.95283
-1.5284 -10.0781 -3.95285
-1.52491 -10.0692 -1.95287
-1.52142 -10.0604 0.0471064
-1.51793 -10.0516 2.04708
-1.51444 -10.0428 4.04706
-1.51095 -10.0339 6.04704
-1.50746 -10.0251 8.04702
-1.50397 -10.0163 10.047
-1.6324 -8.10675 -9.96143
-1.62891 -8.09793 -7.96146
-1.62542 -8.0891 -5.96148
-1.62193 -8.08028 -3.9615
-1.61844 -8.07145 -1.96152
-1.61495 -8.06262 0.0384536
-1.61146 -8.0538 2.03843
-1.60797 -8.04497 4.03841
-1.60448 -8.03615 6.03839
-1.60099 -8.02732 8.03836
-1.5975 -8.0185 10.0383
-1.72594 -6.10896 -9.97009
-1.72244 -6.10013 -7.97011
-1.71895 -6.09131 -5.97013
-1.71546 -6.08248 -3.97015
-1.71197 -6.07366 -1.97018
-1.70848 -6.06483 0.0298009
-1.70499 -6.05601 2.02978
-1.7015 -6.04718 4.02976
-1.69801 -6.03835 6.02973
-1.69452 -6.02953 8.02971
-1.69103 -6.0207 10.0297
-1.81947 -4.11117 -9.97874
-1.81598 -4.10234 -7.97876
-1.81249 -4.09352 -5.97878
-1.809 -4.08469 -3.97881
-1.80551 -4.07586 -1.97883
-1.80202 -4.06704 0.0211482
-1.79853 -4.05821 2.02113
-1.79504 -4.04939 4.0211
-1.79155 -4.04056 6.02108
-1.78806 -4.03174 8.02106
-1.78457 -4.02291 10.021
-1.913 -2.11337 -9.98739
-1.90951 -2.10455 -7.98741
-1.90602 -2.09572 -5.98744
-1.90253 -2.0869 -3.98746
-1.89904 -2.07807 -1.98748
-1.89555 -2.06925 0.0124955
-1.89206 -2.06042 2.01247
-1.88857 -2.05159 4.01245
-1.88508 -2.04277 6.01243
-1.88159 -2.03394 8.01241
-1.8781 -2.02512 10.0124
-2.00653 -0.115581 -9.99604
-2.00304 -0.106755 -7.99607
-1.99955 -0.0979296 -5.99609
-1.99606 -0.089104 -3.99611
-1.99257 -0.0802785 -1.99613
-1.98908 -0.0714529 0.00384274
-1.98559 -0.0626273 2.00382
-1.9821 -0.0538017 4.0038
-1.97861 -0.0449761 6.00378
-1.97512 -0.0361505 8.00375
-1.97163 -0.0273249 10.0037
-2.10007 1.88221 -10.0047
-2.09658 1.89104 -8.00472
-2.09309 1.89986 -6.00474
-2.0896 1.90869 -4.00476
-2.08611 1.91751 -2.00479
-2.08262 1.92634 -0.00480998
-2.07913 1.93517 1.99517
-2.07564 1.94399 3.99514
-2.07215 1.95282 5.99512
-2.06866 1.96164 7.9951
-2.06517 1.97047 9.99508
-2.1936 3.88001 -10.0134
-2.19011 3.88883 -8.01337
-2.18662 3.89766 -6.0134
-2.18313 3.90648 -4.01342
-2.17964 3.91531 -2.01344
-2.17615 3.92413 -0.0134627
-2.17266 3.93296 1.98651
-2.16917 3.94178 3.98649
-2.16568 3.95061 5.98647
-2.16219 3.95944 7.98645
-2.1587 3.96826 9.98642
-2.28713 5.8778 -10.022
-2.28364 5.88662 -8.02203
-2.28015 5.89545 -6.02205
-2.27666 5.90427 -4.02207
-2.27317 5.9131 -2.02209
-2.26968 5.92193 -0.0221154
-2.26619 5.93075 1.97786
-2.2627 5.93958 3.97784
-2.25921 5.9484 5.97782
-2.25572 5.95723 7.97779
-2.25223 5.96605 9.97777
-2.38067 7.87559 -10.0307
-2.37718 7.88442 -8.03068
-2.37369 7.89324 -6.0307
-2.3702 7.90207 -4.03072
-2.36671 7.91089 -2.03075
-2.36322 7.91972 -0.0307681
-2.35973 7.92854 1.96921
-2.35623 7.93737 3.96919
-2.35274 7.9462 5.96916
-2.34925 7.95502 7.96914
-2.34576 7.96385 9.96912
-2.4742 9.87338 -10.0393
-2.47071 9.88221 -8.03933
-2.46722 9.89104 -6.03935
-2.46373 9.89986 -4.03938
-2.46024 9.90869 -2.0394
-2.45675 9.91751 -0.0394209
-2.45326 9.92634 1.96056
-2.44977 9.93516 3.96053
-2.44628 9.94399 5.96051
-2.44279 9.95281 7.96049
-2.4393 9.96164 9.96047
0.45894 -10.011 -9.95668
0.46243 -10.0022 -7.9567
0.46592 -9.99338 -5.95673
0.46941 -9.98455 -3.95675
0.4729 -9.97573 -1.95677
0.47639 -9.9669 0.0432073
0.47988 -9.95808 2.04318
0.483371 -9.94925 4.04316
0.486861 -9.94042 6.04314
0.490351 -9.9316 8.04312
0.493841 -9.92277 10.0431
0.365407 -8.01324 -9.96533
0.368897 -8.00441 -7.96536
0.372387 -7.99558 -5.96538
0.375877 -7.98676 -3.9654
0.379367 -7.97793 -1.96542
0.382857 -7.96911 0.0345546
0.386347 -7.96028 2.03453
0.389838 -7.95146 4.03451
0.393328 -7.94263 6.03449
0.396818 -7.93381 8.03446
0.400308 -7.92498 10.0344
0.271874 -6.01544 -9.97399
0.275364 -6.00662 -7.97401
0.278854 -5.99779 -5.97403
0.282344 -5.98897 -3.97405
0.285834 -5.98014 -1.97408
0.289324 -5.97131 0.0259019
0.292814 -5.96249 2.02588
0.296305 -5.95366 4.02586
0.299795 -5.94484 6.02583
0.303285 -5.93601 8.02581
0.306775 -5.92719 10.0258
0.178341 -4.01765 -9.98264
0.181831 -4.00882 -7.98266
0.185321 -4 -5.98268
0.188811 -3.99117 -3.98271
0.192301 -3.98235 -1.98273
0.195791 -3.97352 0.0172491
0.199281 -3.9647 2.01723
0.202772 -3.95587 4.0172
0.206262 -3.94705 6.01718
0.209752 -3.93822 8.01716
0.213242 -3.92939 10.0171
0.0848076 -2.01986 -9.99129
0.0882978 -2.01103 -7.99131
0.0917879 -2.00221 -5.99134
0.0952781 -1.99338 -3.99136
0.0987682 -1.98455 -1.99138
0.102258 -1.97573 0.00859643
0.105749 -1.9669 2.00857
0.109239 -1.95808 4.00855
0.112729 -1.94925 6.00853
0.116219 -1.94043 8.00851
0.119709 -1.9316 10.0085
-0.00872537 -0.022064 -9.99994
-0.00523522 -0.0132384 -7.99997
-0.00174507 -0.00441279 -5.99999
0.00174507 0.00441279 -4.00001
0.00523522 0.0132384 -2.00003
0.00872537 0.022064 -5.62954e-05
0.0122155 0.0308896 1.99992
0.0157057 0.0397151 3.9999
0.0191958 0.0485407 5.99988
0.022686 0.0573663 7.99985
0.0261761 0.0661919 9.99983
-0.102258 1.97573 -10.0086
-0.0987682 1.98455 -8.00862
-0.0952781 1.99338 -6.00864
-0.0917879 2.00221 -4.00866
-0.0882978 2.01103 -2.00869
-0.0848076 2.01986 -0.00870902
-0.0813175 2.02868 1.99127
-0.0778273 2.03751 3.99125
-0.0743372 2.04633 5.99122
-0.070847 2.05516 7.9912
-0.0673569 2.06398 9.99118
-0.195791 3.97352 -10.0172
-0.192301 3.98235 -8.01727
-0.188811 3.99117 -6.01729
-0.185321 4 -4.01732
-0.181831 4.00882 -2.01734
-0.178341 4.01765 -0.0173617
-0.17485 4.02648 1.98262
-0.17136 4.0353 3.98259
-0.16787 4.04413 5.98257
-0.16438 4.05295 7.98255
-0.16089 4.06178 9.98253
-0.289324 5.97131 -10.0259
-0.285834 5.98014 -8.02592
-0.282344 5.98897 -6.02595
-0.278854 5.99779 -4.02597
-0.275364 6.00662 -2.02599
-0.271874 6.01544 -0.0260145
-0.268383 6.02427 1.97396
-0.264893 6.03309 3.97394
-0.261403 6.04192 5.97392
-0.257913 6.05075 7.9739
-0.254423 6.05957 9.97387
-0.382857 7.96911 -10.0346
-0.379367 7.97793 -8.03458
-0.375877 7.98676 -6.0346
-0.372387 7.99558 -4.03462
-0.368897 8.00441 -2.03464
-0.365407 8.01324 -0.0346672
-0.361916 8.02206 1.96531
-0.358426 8.03089 3.96529
-0.354936 8.03971 5.96527
-0.351446 8.04854 7.96524
-0.347956 8.05736 9.96522
-0.47639 9.9669 -10.0432
-0.4729 9.97573 -8.04323
-0.46941 9.98455 -6.04325
-0.46592 9.99338 -4.04327
-0.46243 10.0022 -2.0433
-0.45894 10.011 -0.0433199
-0.455449 10.0199 1.95666
-0.451959 10.0287 3.95664
-0.448469 10.0375 5.95661
-0.444979 10.0463 7.95659
-0.441489 10.0552 9.95657
2.45675 -9.91751 -9.96058
2.46024 -9.90869 -7.9606
2.46373 -9.89986 -5.96062
2.46722 -9.89104 -3.96065
2.47071 -9.88221 -1.96067
2.4742 -9.87338 0.0393083
2.47769 -9.86456 2.03929
2.48118 -9.85573 4.03926
2.48467 -9.84691 6.03924
2.48816 -9.83808 8.03922
2.49165 -9.82926 10.0392
2.36322 -7.91972 -9.96923
2.36671 -7.91089 -7.96925
2.3702 -7.90207 -5.96928
2.37369 -7.89324 -3.9693
2.37718 -7.88442 -1.96932
2.38067 -7.87559 0.0306556
2.38416 -7.86677 2.03063
2.38765 -7.85794 4.03061
2.39114 -7.84911 6.03059
2.39463 -7.84029 8.03057
2.39812 -7.83146 10.0305
2.26968 -5.92193 -9.97788
2.27317 -5.9131 -7.97791
2.27666 -5.90427 -5.97793
2.28015 -5.89545 -3.97795
2.28364 -5.88662 -1.97797
2.28713 -5.8778 0.0220028
2.29062 -5.86897 2.02198
2.29411 -5.86015 4.02196
2.2976 -5.85132 6.02194
2.30109 -5.8425 8.02191
2.30458 -5.83367 10.0219
2.17615 -3.92413 -9.98654
2.17964 -3.91531 -7.98656
2.18313 -3.90648 -5.98658
2.18662 -3.89766 -3.9866
2.19011 -3.88883 -1.98663
2.1936 -3.88001 0.0133501
2.19709 -3.87118 2.01333
2.20058 -3.86235 4.01331
2.20407 -3.85353 6.01328
2.20756 -3.8447 8.01326
2.21105 -3.83588 10.0132
2.08262 -1.92634 -9.99519
2.08611 -1.91751 -7.99521
2.0896 -1.90869 -5.99524
2.09309 -1.89986 -3.99526
2.09658 -1.89104 -1.99528
2.10007 -1.88221 0.00469739
2.10356 -1.87339 2.00467
2.10705 -1.86456 4.00465
2.11054 -1.85574 6.00463
2.11403 -1.84691 8.00461
2.11752 -1.83808 10.0046
1.98908 0.0714529 -10.0038
1.99257 0.0802785 -8.00387
1.99606 0.089104 -6.00389
1.99955 0.0979296 -4.00391
2.00304 0.106755 -2.00393
2.00653 0.115581 -0.00395533
2.01002 0.124406 1.99602
2.01351 0.133232 3.996
2.017 0.142058 5.99598
2.02049 0.150883 7.99595
2.02398 0.159709 9.99593
1.89555 2.06925 -10.0125
1.89904 2.07807 -8.01252
1.90253 2.0869 -6.01254
1.90602 2.09572 -4.01256
1.90951 2.10455 -2.01259
1.913 2.11337 -0.0126081
1.91649 2.1222 1.98737
1.91998 2.13102 3.98735
1.92347 2.13985 5.98732
1.92696 2.14868 7.9873
1.93045 2.1575 9.98728
1.80202 4.06704 -10.0211
1.80551 4.07586 -8.02117
1.809 4.08469 -6.02119
1.81249 4.09352 -4.02122
1.81598 4.10234 -2.02124
1.81947 4.11117 -0.0212608
1.82296 4.11999 1.97872
1.82645 4.12882 3.97869
1.82994 4.13764 5.97867
1.83343 4.14647 7.97865
1.83692 4.15529 9.97863
1.70848 6.06483 -10.0298
1.71197 6.07366 -8.02982
1.71546 6.08248 -6.02985
1.71895 6.09131 -4.02987
1.72244 6.10013 -2.02989
1.72594 6.10896 -0.0299135
1.72943 6.11779 1.97006
1.73292 6.12661 3.97004
1.73641 6.13544 5.97002
1.7399 6.14426 7.97
1.74339 6.15309 9.96997
1.61495 8.06262 -10.0385
1.61844 8.07145 -8.03848
1.62193 8.08028 -6.0385
1.62542 8.0891 -4.03852
1.62891 8.09793 -2.03854
1.6324 8.10675 -0.0385662
1.63589 8.11558 1.96141
1.63938 8.1244 3.96139
1.64287 8.13323 5.96137
1.64636 8.14205 7.96134
1.64985 8.15088 9.96132
1.52142 10.0604 -10.0471
1.52491 10.0692 -8.04713
1.5284 10.0781 -6.04715
1.53189 10.0869 -4.04717
1.53538 10.0957 -2.0472
1.53887 10.1045 -0.0472189
1.54236 10.1134 1.95276
1.54585 10.1222 3.95274
1.54934 10.131 5.95271
1.55283 10.1398 7.95269
1.55632 10.1487 9.95267
4.45456 -9.824 -9.96448
4.45805 -9.81517 -7.9645
4.46154 -9.80634 -5.96452
4.46503 -9.79752 -3.96455
4.46852 -9.78869 -1.96457
4.47201 -9.77987 0.0354092
4.4755 -9.77104 2.03539
4.47899 -9.76222 4.03536
4.48248 -9.75339 6.03534
4.48597 -9.74456 8.03532
4.48946 -9.73574 10.0353
4.36102 -7.8262 -9.97313
4.36451 -7.81738 -7.97315
4.368 -7.80855 -5.97318
4.37149 -7.79973 -3.9732
4.37498 -7.7909 -1.97322
4.37847 -7.78207 0.0267565
4.38196 -7.77325 2.02673
4.38545 -7.76442 4.02671
4.38895 -7.7556 6.02669
4.39244 -7.74677 8.02667
4.39593 -7.73795 10.0266
4.26749 -5.82841 -9.98178
4.27098 -5.81958 -7.98181
4.27447 -5.81076 -5.98183
4.27796 -5.80193 -3.98185
4.28145 -5.79311 -1.98187
4.28494 -5.78428 0.0181038
4.28843 -5.77546 2.01808
4.29192 -5.76663 4.01806
4.29541 -5.7578 6.01804
4.2989 -5.74898 8.01801
4.30239 -5.74015 10.018
4.17396 -3.83062 -9.99044
4.17745 -3.82179 -7.99046
4.18094 -3.81297 -5.99048
4.18443 -3.80414 -3.9905
4.18792 -3.79531 -1.99053
4.19141 -3.78649 0.00945107
4.1949 -3.77766 2.00943
4.19839 -3.76884 4.00941
4.20188 -3.76001 6.00938
4.20537 -3.75119 8.00936
4.20886 -3.74236 10.0093
4.08042 -1.83282 -9.99909
4.08392 -1.824 -7.99911
4.08741 -1.81517 -5.99913
4.0909 -1.80635 -3.99916
4.09439 -1.79752 -1.99918
4.09788 -1.7887 0.00079835
4.10137 -1.77987 2.00078
4.10486 -1.77104 4.00075
4.10835 -1.76222 6.00073
4.11184 -1.75339 8.00071
4.11533 -1.74457 10.0007
3.98689 0.16497 -10.0077
3.99038 0.173795 -8.00776
3.99387 0.182621 -6.00779
3.99736 0.191446 -4.00781
4.00085 0.200272 -2.00783
4.00434 0.209098 -0.00785437
4.00783 0.217923 1.99212
4.01132 0.226749 3.9921
4.01481 0.235574 5.99208
4.0183 0.2444 7.99206
4.02179 0.253226 9.99203
3.89336 2.16276 -10.0164
3.89685 2.17159 -8.01642
3.90034 2.18041 -6.01644
3.90383 2.18924 -4.01646
3.90732 2.19807 -2.01648
3.91081 2.20689 -0.0165071
3.9143 2.21572 1.98347
3.91779 2.22454 3.98345
3.92128 2.23337 5.98343
3.92477 2.24219 7.9834
3.92826 2.25102 9.98338
3.79983 4.16056 -10.025
3.80332 4.16938 -8.02507
3.80681 4.17821 -6.02509
3.8103 4.18703 -4.02511
3.81379 4.19586 -2.02514
3.81728 4.20468 -0.0251598
3.82077 4.21351 1.97482
3.82426 4.22233 3.9748
3.82775 4.23116 5.97477
3.83124 4.23999 7.97475
3.83473 4.24881 9.97473
3.70629 6.15835 -10.0337
3.70978 6.16717 -8.03372
3.71327 6.176 -6.03374
3.71676 6.18483 -4.03377
3.72025 6.19365 -2.03379
3.72374 6.20248 -0.0338125
3.72723 6.2113 1.96616
3.73072 6.22013 3.96614
3.73421 6.22895 5.96612
3.7377 6.23778 7.9661
3.74119 6.2466 9.96607
3.61276 8.15614 -10.0424
3.61625 8.16497 -8.04238
3.61974 8.17379 -6.0424
3.62323 8.18262 -4.04242
3.62672 8.19144 -2.04244
3.63021 8.20027 -0.0424653
3.6337 8.2091 1.95751
3.63719 8.21792 3.95749
3.64068 8.22675 5.95747
3.64417 8.23557 7.95744
3.64766 8.2444 9.95742
3.51923 10.1539 -10.051
3.52272 10.1628 -8.05103
3.52621 10.1716 -6.05105
3.5297 10.1804 -4.05107
3.53319 10.1892 -2.0511
3.53668 10.1981 -0.051118
3.54017 10.2069 1.94886
3.54366 10.2157 3.94884
3.54715 10.2245 5.94881
3.55064 10.2334 7.94879
3.55413 10.2422 9.94877
6.45237 -9.73048 -9.96838
6.45586 -9.72165 -7.9684
6.45935 -9.71283 -5.96842
6.46284 -9.704 -3.96844
6.46633 -9.69518 -1.96847
6.46982 -9.68635 0.0315102
6.47331 -9.67752 2.03149
6.4768 -9.6687 4.03147
6.48029 -9.65987 6.03144
6.48378 -9.65105 8.03142
6.48727 -9.64222 10.0314
6.35883 -7.73269 -9.97703
6.36232 -7.72386 -7.97705
6.36581 -7.71503 -5.97707
6.3693 -7.70621 -3.9771
6.37279 -7.69738 -1.97712
6.37628 -7.68856 0.0228575
6.37977 -7.67973 2.02283
6.38326 -7.67091 4.02281
6.38675 -7.66208 6.02279
6.39024 -7.65326 8.02277
6.39373 -7.64443 10.0227
6.2653 -5.73489 -9.98568
6.26879 -5.72607 -7.98571
6.27228 -5.71724 -5.98573
6.27577 -5.70842 -3.98575
6.27926 -5.69959 -1.98577
6.28275 -5.69076 0.0142048
6.28624 -5.68194 2.01418
6.28973 -5.67311 4.01416
6.29322 -5.66429 6.01414
6.29671 -5.65546 8.01411
6.3002 -5.64664 10.0141
6.17177 -3.7371 -9.99434
6.17526 -3.72827 -7.99436
6.17875 -3.71945 -5.99438
6.18224 -3.71062 -3.9944
6.18573 -3.7018 -1.99443
6.18922 -3.69297 0.00555203
6.19271 -3.68415 2.00553
6.1962 -3.67532 4.00551
6.19969 -3.66649 6.00548
6.20318 -3.65767 8.00546
6.20667 -3.64884 10.0054
6.07823 -1.73931 -10.003
6.08172 -1.73048 -8.00301
6.08521 -1.72166 -6.00303
6.0887 -1.71283 -4.00306
6.09219 -1.704 -2.00308
6.09568 -1.69518 -0.00310069
6.09917 -1.68635 1.99688
6.10266 -1.67753 3.99685
6.10615 -1.6687 5.99683
6.10964 -1.65988 7.99681
6.11314 -1.65105 9.99679
5.9847 0.258487 -10.0116
5.98819 0.267312 -8.01166
5.99168 0.276138 -6.01169
5.99517 0.284963 -4.01171
5.99866 0.293789 -2.01173
6.00215 0.302614 -0.0117534
6.00564 0.31144 1.98822
6.00913 0.320266 3.9882
6.01262 0.329091 5.98818
6.01611 0.337917 7.98816
6.0196 0.346742 9.98813
5.89117 2.25628 -10.0203
5.89466 2.26511 -8.02032
5.89815 2.27393 -6.02034
5.90164 2.28276 -4.02036
5.90513 2.29158 -2.02038
5.90862 2.30041 -0.0204061
5.91211 2.30923 1.97957
5.9156 2.31806 3.97955
5.91909 2.32688 5.97953
5.92258 2.33571 7.9795
5.92607 2.34454 9.97948
5.79763 4.25407 -10.0289
5.80112 4.2629 -8.02897
5.80461 4.27172 -6.02899
5.80811 4.28055 -4.02901
5.8116 4.28937 -2.02904
5.81509 4.2982 -0.0290589
5.81858 4.30703 1.97092
5.82207 4.31585 3.9709
5.82556 4.32468 5.97087
5.82905 4.3335 7.97085
5.83254 4.34233 9.97083
5.7041 6.25187 -10.0376
5.70759 6.26069 -8.03762
5.71108 6.26952 -6.03764
5.71457 6.27834 -4.03767
5.71806 6.28717 -2.03769
5.72155 6.29599 -0.0377116
5.72504 6.30482 1.96227
5.72853 6.31364 3.96224
5.73202 6.32247 5.96222
5.73551 6.3313 7.9622
5.739 6.34012 9.96218
5.61057 8.24966 -10.0463
5.61406 8.25848 -8.04627
5.61755 8.26731 -6.0463
5.62104 8.27614 -4.04632
5.62453 8.28496 -2.04634
5.62802 8.29379 -0.0463643
5.63151 8.30261 1.95361
5.635 8.31144 3.95359
5.63849 8.32026 5.95357
5.64198 8.32909 7.95355
5.64547 8.33791 9.95352
5.51704 10.2475 -10.0549
5.52053 10.2563 -8.05493
5.52402 10.2651 -6.05495
5.52751 10.2739 -4.05497
5.531 10.2828 -2.05499
5.53449 10.2916 -0.055017
5.53798 10.3004 1.94496
5.54147 10.3092 3.94494
5.54496 10.3181 5.94492
5.54845 10.3269 7.94489
5.55194 10.3357 9.94487
8.45017 -9.63696 -9.97228
8.45366 -9.62814 -7.9723
8.45715 -9.61931 -5.97232
8.46064 -9.61048 -3.97234
8.46413 -9.60166 -1.97237
8.46762 -9.59283 0.0276112
8.47112 -9.58401 2.02759
8.47461 -9.57518 4.02757
8.4781 -9.56636 6.02754
8.48159 -9.55753 8.02752
8.48508 -9.54871 10.0275
8.35664 -7.63917 -9.98093
8.36013 -7.63034 -7.98095
8.36362 -7.62152 -5.98097
8.36711 -7.61269 -3.981
8.3706 -7.60387 -1.98102
8.37409 -7.59504 0.0189584
8.37758 -7.58621 2.01894
8.38107 -7.57739 4.01891
8.38456 -7.56856 6.01889
8.38805 -7.55974 8.01887
8.39154 -7.55091 10.0188
8.26311 -5.64138 -9.98958
8.2666 -5.63255 -7.9896
8.27009 -5.62372 -5.98963
8.27358 -5.6149 -3.98965
8.27707 -5.60607 -1.98967
8.28056 -5.59725 0.0103057
8.28405 -5.58842 2.01028
8.28754 -5.5796 4.01026
8.29103 -5.57077 6.01024
8.29452 -5.56195 8.01022
8.29801 -5.55312 10.0102
8.16958 -3.64358 -9.99823
8.17307 -3.63476 -7.99826
8.17656 -3.62593 -5.99828
8.18005 -3.61711 -3.9983
8.18354 -3.60828 -1.99832
8.18703 -3.59945 0.001653
8.19052 -3.59063 2.00163
8.19401 -3.5818 4.00161
8.1975 -3.57298 6.00159
8.20099 -3.56415 8.00156
8.20448 -3.55533 10.0015
8.07604 -1.64579 -10.0069
8.07953 -1.63696 -8.00691
8.08302 -1.62814 -6.00693
8.08651 -1.61931 -4.00695
8.09 -1.61049 -2.00698
8.09349 -1.60166 -0.00699973
8.09698 -1.59284 1.99298
8.10047 -1.58401 3.99296
8.10396 -1.57518 5.99293
8.10745 -1.56636 7.99291
8.11094 -1.55753 9.99289
7.98251 0.352003 -10.0155
7.986 0.360829 -8.01556
7.98949 0.369655 -6.01558
7.99298 0.37848 -4.01561
7.99647 0.387306 -2.01563
7.99996 0.396131 -0.0156524
8.00345 0.404957 1.98433
8.00694 0.413782 3.9843
8.01043 0.422608 5.98428
8.01392 0.431434 7.98426
8.01741 0.440259 9.98423
7.88898 2.3498 -10.0242
7.89247 2.35862 -8.02422
7.89596 2.36745 -6.02424
7.89945 2.37627 -4.02426
7.90294 2.3851 -2.02428
7.90643 2.39392 -0.0243052
7.90992 2.40275 1.97567
7.91341 2.41158 3.97565
7.9169 2.4204 5.97563
7.92039 2.42923 7.9756
7.92388 2.43805 9.97558
7.79544 4.34759 -10.0328
7.79893 4.35641 -8.03287
7.80242 4.36524 -6.03289
7.80591 4.37407 -4.03291
7.8094 4.38289 -2.03294
7.81289 4.39172 -0.0329579
7.81638 4.40054 1.96702
7.81987 4.40937 3.967
7.82336 4.41819 5.96697
7.82685 4.42702 7.96695
7.83034 4.43585 9.96693
7.70191 6.34538 -10.0415
7.7054 6.35421 -8.04152
7.70889 6.36303 -6.04154
7.71238 6.37186 -4.04157
7.71587 6.38068 -2.04159
7.71936 6.38951 -0.0416106
7.72285 6.39834 1.95837
7.72634 6.40716 3.95834
7.72983 6.41599 5.95832
7.73332 6.42481 7.9583
7.73681 6.43364 9.95828
7.60838 8.34318 -10.0502
7.61187 8.352 -8.05017
7.61536 8.36083 -6.0502
7.61885 8.36965 -4.05022
7.62234 8.37848 -2.05024
7.62583 8.3873 -0.0502633
7.62932 8.39613 1.94971
7.63281 8.40495 3.94969
7.6363 8.41378 5.94967
7.63979 8.42261 7.94965
7.64328 8.43143 9.94962
7.51484 10.341 -10.0588
7.51833 10.3498 -8.05883
7.52182 10.3586 -6.05885
7.52531 10.3674 -4.05887
7.5288 10.3763 -2.05889
7.5323 10.3851 -0.0589161
7.53579 10.3939 1.94106
7.53928 10.4027 3.94104
7.54277 10.4116 5.94102
7.54626 10.4204 7.94099
7.54975 10.4292 9.94097
10.448 -9.54344 -9.97618
10.4515 -9.53462 -7.9762
10.455 -9.52579 -5.97622
10.4585 -9.51697 -3.97624
10.4619 -9.50814 -1.97627
10.4654 -9.49932 0.0237121
10.4689 -9.49049 2.02369
10.4724 -9.48167 4.02367
10.4759 -9.47284 6.02364
10.4794 -9.46401 8.02362
10.4829 -9.45519 10.0236
10.3544 -7.54565 -9.98483
10.3579 -7.53683 -7.98485
10.3614 -7.528 -5.98487
10.3649 -7.51917 -3.9849
10.3684 -7.51035 -1.98492
10.3719 -7.50152 0.0150594
10.3754 -7.4927 2.01504
10.3789 -7.48387 4.01501
10.3824 -7.47505 6.01499
10.3859 -7.46622 8.01497
10.3894 -7.4574 10.0149
10.2609 -5.54786 -9.99348
10.2644 -5.53903 -7.9935
10.2679 -5.53021 -5.99353
10.2714 -5.52138 -3.99355
10.2749 -5.51256 -1.99357
10.2784 -5.50373 0.00640668
10.2819 -5.49491 2.00638
10.2853 -5.48608 4.00636
10.2888 -5.47725 6.00634
10.2923 -5.46843 8.00632
10.2958 -5.4596 10.0063
10.1674 -3.55007 -10.0021
10.1709 -3.54124 -8.00216
10.1744 -3.53241 -6.00218
10.1779 -3.52359 -4.0022
10.1813 -3.51476 -2.00222
10.1848 -3.50594 -0.00224604
10.1883 -3.49711 1.99773
10.1918 -3.48829 3.99771
10.1953 -3.47946 5.99769
10.1988 -3.47064 7.99766
10.2023 -3.46181 9.99764
10.0739 -1.55227 -10.0108
10.0773 -1.54345 -8.01081
10.0808 -1.53462 -6.01083
10.0843 -1.5258 -4.01085
10.0878 -1.51697 -2.01088
10.0913 -1.50814 -0.0108988
10.0948 -1.49932 1.98908
10.0983 -1.49049 3.98906
10.1018 -1.48167 5.98903
10.1053 -1.47284 7.98901
10.1088 -1.46402 9.98899
9.98032 0.44552 -10.0194
9.98381 0.454346 -8.01946
9.9873 0.463171 -6.01948
9.99079 0.471997 -4.01951
9.99428 0.480823 -2.01953
9.99777 0.489648 -0.0195515
10.0013 0.498474 1.98043
10.0047 0.507299 3.9804
10.0082 0.516125 5.98038
10.0117 0.52495 7.98036
10.0152 0.533776 9.98034
9.88678 2.44331 -10.0281
9.89028 2.45214 -8.02811
9.89377 2.46096 -6.02814
9.89726 2.46979 -4.02816
9.90075 2.47862 -2.02818
9.90424 2.48744 -0.0282042
9.90773 2.49627 1.97177
9.91122 2.50509 3.97175
9.91471 2.51392 5.97173
9.9182 2.52274 7.97171
9.92169 2.53157 9.97168
9.79325 4.44111 -10.0367
9.79674 4.44993 -8.03677
9.80023 4.45876 -6.03679
9.80372 4.46758 -4.03681
9.80721 4.47641 -2.03683
9.8107 4.48523 -0.0368569
9.81419 4.49406 1.96312
9.81768 4.50289 3.9631
9.82117 4.51171 5.96308
9.82466 4.52054 7.96305
9.82815 4.52936 9.96303
9.69972 6.4389 -10.0454
9.70321 6.44772 -8.04542
9.7067 6.45655 -6.04544
9.71019 6.46538 -4.04546
9.71368 6.4742 -2.04549
9.71717 6.48303 -0.0455097
9.72066 6.49185 1.95447
9.72415 6.50068 3.95445
9.72764 6.5095 5.95442
9.73113 6.51833 7.9544
9.73462 6.52715 9.95438
9.60619 8.43669 -10.054
9.60968 8.44552 -8.05407
9.61317 8.45434 -6.05409
9.61666 8.46317 -4.05412
9.62015 8.47199 -2.05414
9.62364 8.48082 -0.0541624
9.62713 8.48965 1.94582
9.63062 8.49847 3.94579
9.63411 8.5073 5.94577
9.6376 8.51612 7.94575
9.64109 8.52495 9.94573
9.51265 10.4345 -10.0627
9.51614 10.4433 -8.06273
9.51963 10.4521 -6.06275
9.52312 10.461 -4.06277
9.52661 10.4698 -2.06279
9.5301 10.4786 -0.0628151
9.53359 10.4874 1.93716
9.53708 10.4963 3.93714
9.54057 10.5051 5.93712
9.54406 10.5139 7.93709
9.54755 10.5227 9.93707
