ply
format ascii 1.0
element vertex 214
property float x
property float y
property float z
end_header
0.650112 -4.98784 0.792817
0.635226 -4.98999 0.791376
0.619806 -5.00155 0.795045
0.604007 -5.00343 0.79538
0.587319 -5.0055 0.794851
0.568391 -4.98774 0.792086
0.552841 -4.99951 0.793113
0.537052 -5.00104 0.794321
0.520235 -4.9927 0.793965
0.505454 -5.00409 0.795853
0.489562 -4.9957 0.794597
0.476475 -5.0067 0.797326
0.461527 -5.00833 0.795873
0.648771 -4.99614 0.805878
0.635104 -5.0078 0.807775
0.617196 -5.00003 0.80655
0.600221 -4.99209 0.805303
0.585864 -5.01363 0.808817
0.569146 -5.01549 0.809167
0.553503 -5.02698 0.811983
0.534641 -5.00925 0.808281
0.518815 -5.01086 0.808608
0.502877 -5.00251 0.807332
0.489786 -5.01383 0.808325
0.4739 -5.00524 0.807926
0.458999 -5.01621 0.811595
0.650442 -5.01426 0.818776
0.632123 -4.99636 0.817677
0.617546 -5.00807 0.819614
0.600547 -5.00014 0.818346
0.581854 -4.99206 0.818868
0.567425 -5.01353 0.822434
0.550502 -5.00558 0.820276
0.532593 -4.98761 0.817389
0.51886 -5.00914 0.819171
0.503036 -5.0107 0.819497
0.487137 -5.00202 0.819955
0.473134 -5.01337 0.82099
0.457283 -5.00473 0.820564
0.644892 -4.98308 0.826316
0.632493 -5.00466 0.828996
0.615805 -5.00624 0.831995
0.599108 -5.00821 0.832348
0.581264 -5.00047 0.830192
0.565701 -5.01168 0.834812
0.548984 -5.01348 0.835161
0.532102 -5.00533 0.833857
0.515273 -4.99711 0.83255
0.501337 -5.00869 0.832733
0.486304 -5.00065 0.828755
0.471384 -5.00188 0.829938
0.455578 -5.00344 0.829382
0.643147 -4.9814 0.837766
0.629869 -5.00277 0.842274
0.614062 -5.00468 0.842609
0.595909 -4.98666 0.841402
0.580675 -5.0081 0.845956
0.562866 -5.0003 0.843772
0.546195 -5.00164 0.846758
0.531268 -5.0032 0.847067
0.515451 -5.00509 0.845636
0.500512 -5.00671 0.845064
0.48468 -5.00865 0.84275
0.471529 -5.01991 0.843808
0.453895 -5.00138 0.842586
0.645178 -5.00887 0.855097
0.626891 -4.99141 0.851216
0.611439 -5.00305 0.854118
0.593297 -4.98532 0.85111
0.578061 -5.0063 0.858344
0.562242 -5.00804 0.858676
0.544468 -5.00003 0.857344
0.529708 -5.01132 0.860232
0.511857 -4.99345 0.856318
0.497924 -5.00501 0.856548
0.482987 -5.00643 0.856854
0.46983 -5.01798 0.856179
0.452212 -5.00949 0.855723
0.641782 -4.98746 0.863205
0.626367 -4.9996 0.863489
0.606986 -4.97199 0.859633
0.593886 -5.00298 0.866818
0.57607 -4.99493 0.866353
0.559411 -4.99631 0.869337
0.541681 -4.98829 0.867981
0.527981 -5.00967 0.870836
0.512021 -5.00152 0.868563
0.496116 -4.99332 0.866291
0.47939 -4.98515 0.864038
0.468133 -5.01586 0.869423
0.450509 -4.99778 0.865467
0.642157 -4.99504 0.87812
0.624268 -4.98732 0.876757
0.607313 -4.97974 0.87362
0.589825 -4.98162 0.874865
0.576339 -5.00267 0.880392
0.559648 -5.0045 0.880741
0.540833 -4.98638 0.879397
0.52714 -5.00744 0.884056
0.511309 -5.00918 0.883503
0.496262 -5.0009 0.881187
0.481337 -5.00231 0.881492
0.466396 -5.00398 0.880041
0.451461 -5.01534 0.881206
0.641645 -5.00285 0.892217
0.624612 -4.99502 0.890812
0.607633 -4.98729 0.888527
0.589835 -4.97945 0.887136
0.573472 -4.99105 0.890124
0.557913 -5.00235 0.893975
0.541043 -4.99424 0.892556
0.525259 -4.99586 0.892883
0.509347 -4.9874 0.892317
0.495517 -5.00884 0.894386
0.480501 -5.00036 0.892925
0.464668 -4.99176 0.892356
0.448883 -4.99346 0.890925
0.640754 -5.00059 0.905455
0.622851 -4.99271 0.904922
0.605883 -4.9853 0.900854
0.590678 -5.00672 0.905634
0.573731 -4.99888 0.903319
0.555962 -4.99076 0.902779
0.540372 -5.00199 0.906653
0.523533 -4.99399 0.904331
0.51062 -5.01489 0.909063
0.493715 -4.99675 0.905822
0.47879 -4.99847 0.904372
0.462995 -4.99974 0.905573
0.634369 -4.96955 0.911595
0.622304 -5.0006 0.91818
0.606497 -5.00232 0.919394
0.590074 -5.01412 0.921559
0.569992 -4.98667 0.916524
0.555313 -4.99833 0.917771
0.53758 -4.99047 0.915446
0.52166 -4.98205 0.914836
0.508888 -5.01314 0.919669
0.492085 -5.00455 0.919957
0.478901 -5.00578 0.920227
0.462168 -4.99757 0.917873
0.635088 -4.98669 0.929271
0.620536 -4.9987 0.929662
0.602676 -4.99059 0.929958
0.584875 -4.98257 0.929367
0.570239 -4.99427 0.93064
0.552694 -4.99617 0.931007
0.5369 -4.99783 0.931335
0.519057 -4.98021 0.926269
0.504191 -4.98152 0.92745
0.490277 -4.99289 0.9287
0.474437 -4.98449 0.927185
0.460489 -5.00516 0.932904
0.635795 -5.00444 0.943524
0.619969 -5.00586 0.946504
0.602968 -4.99814 0.944115
0.584265 -4.99023 0.943521
0.567612 -4.99192 0.944748
0.552906 -5.00373 0.945165
0.533942 -4.97607 0.93996
0.52126 -5.00717 0.944941
0.503456 -4.98933 0.940702
0.487603 -4.98081 0.94004
0.477323 -5.02141 0.946827
0.458754 -4.99331 0.942493
0.631544 -4.98299 0.9513
0.616113 -4.99425 0.956152
0.60032 -4.99611 0.956486
0.582507 -4.98826 0.954969
0.56586 -4.98994 0.956196
0.549205 -4.99157 0.957421
0.534467 -5.00315 0.958742
0.518646 -5.00475 0.959069
0.502717 -4.99661 0.956627
0.489699 -5.01809 0.958031
0.473742 -4.99983 0.954588
0.459724 -5.02098 0.957762
0.627665 -4.97138 0.960882
0.614342 -4.9926 0.965861
0.597676 -4.99439 0.967092
0.581005 -4.99577 0.97008
0.56323 -4.98803 0.967658
0.548528 -4.99914 0.971637
0.530806 -4.99094 0.970964
0.516906 -5.00255 0.971413
0.500109 -4.9945 0.968966
0.486066 -4.99634 0.966622
0.470261 -4.99813 0.96519
0.453573 -4.98958 0.964499
0.62922 -4.98876 0.976092
0.611051 -4.97117 0.972616
0.596783 -4.99226 0.978536
0.578727 -4.97422 0.976799
0.56235 -4.98556 0.980832
0.546774 -4.99709 0.983098
0.530973 -4.99873 0.983426
0.516043 -5.00024 0.983734
0.501204 -5.01206 0.983338
0.485217 -4.99403 0.97892
0.471217 -5.00551 0.979381
0.454497 -4.99731 0.976914
0.628314 -4.98662 0.987532
0.612547 -4.98869 0.986988
0.594725 -4.98037 0.988044
0.578351 -4.99158 0.992978
0.561468 -4.98357 0.99137
0.543765 -4.97525 0.991528
0.531135 -5.00649 0.995922
0.51417 -4.98848 0.992352
0.49742 -4.98025 0.990736
0.48531 -5.0018 0.991392
0.47037 -5.00317 0.991697
0.454549 -5.00457 0.992019
0.590927 -4.96919 0.994915
