ply
format ascii 1.0
element vertex 1283
property float x
property float y
property float z
end_header
-100.598 -101.554 -100.386
-101.556 -99.5981 -78.7009
-99.253 -100.181 -58.2794
-100.985 -98.4303 -40.7225
-99.7031 -99.1577 -19.2888
-99.8571 -100.025 -0.0390809
-101.348 -99.084 17.9747
-100.57 -99.1014 40.0466
-98.3351 -101.682 60.1612
-100.87 -101.947 80.0612
-100.291 -100.89 100.888
-101.508 -79.1698 -100.432
-100.643 -79.1547 -79.3363
-102.206 -82.2946 -61.3397
-98.2772 -80.3139 -39.8264
-98.0341 -81.2951 -18.6306
-99.1488 -79.6244 -0.160109
-100.832 -80.3198 19.7663
-100.593 -81.4724 41.5908
-100.042 -80.5361 61.0405
-99.4713 -79.576 81.703
-99.1034 -79.7146 99.2923
-100.19 -61.4111 -100.435
-99.3091 -59.2876 -80.7144
-98.9528 -59.3137 -60.8303
-100.327 -60.4378 -40.768
-99.0661 -60.6768 -18.4521
-100.441 -60.6923 0.268451
-100.136 -59.6695 19.7191
-99.7551 -59.8383 40.1581
-99.9369 -60.1874 59.4624
-99.4874 -58.4473 79.7021
-99.8086 -58.9005 101.078
-98.289 -39.8045 -99.9726
-101.419 -40.4828 -79.6138
-99.4296 -41.5574 -61.036
-99.5332 -38.4755 -39.5396
-101.415 -39.7744 -19.4164
-99.7163 -40.4879 -0.985265
-100.08 -39.5219 20.2013
-99.5731 -38.8507 39.1246
-99.3543 -37.5157 59.833
-98.3265 -39.5287 80.9037
-99.6055 -39.0478 99.6983
-100.755 -19.8818 -100.599
-99.0204 -19.0799 -81.2345
-99.904 -19.1611 -57.4762
-100.408 -19.3273 -39.5997
-98.7869 -19.5252 -21.2308
-99.2176 -17.9328 0.215653
-101.958 -21.1579 19.6163
-100.639 -20.6493 39.9417
-99.2747 -19.0569 58.8538
-102.176 -19.1402 80.4398
-98.0752 -17.7769 99.4306
-99.1182 -1.27603 -98.238
-99.2611 -0.31907 -78.5864
-99.6043 -0.0694068 -60.4105
-98.9223 -0.208094 -40.2893
-98.2019 -0.68371 -19.2048
-101.381 -1.71012 0.142545
-99.4326 0.114505 20.9302
-101.445 0.634109 38.5646
-98.9579 -1.12739 60.8031
-99.1278 2.14071 79.5853
-100.738 -1.05233 100.276
-99.9116 21.8629 -99.5425
-101.644 20.4069 -80.0588
-99.3615 19.2587 -60.8311
-98.5364 21.1408 -39.4701
-101.778 19.6643 -20.27
-100.406 19.3697 0.32081
-98.9494 19.3542 19.3893
-100.448 19.4947 40.3734
-99.5297 21.2692 58.5954
-99.3001 18.0983 78.5301
-97.9609 20.8764 99.5941
-99.1737 39.0327 -100.353
-101.375 40.2681 -81.2115
-99.8868 41.2091 -60.0147
-100.326 39.4619 -40.2229
-99.673 39.4148 -21.2024
-98.0731 39.8182 0.269229
-101.437 39.8883 20.0231
-100.161 40.8803 39.3359
-100.073 40.3291 60.1516
-102.272 40.7993 80.0354
-100.131 40.8555 100.116
-100.045 61.144 -99.3051
-99.9519 60.9332 -80.6533
-100.129 58.9043 -60.537
-100.212 61.4266 -39.7527
-100.393 60.2943 -20.0777
-98.9721 61.9564 -0.0766979
-99.2371 59.8244 18.4206
-101.474 62.4145 38.5563
-100.816 58.8824 59.7123
-101.17 60.2281 80.5122
-98.9283 59.6486 99.443
-99.7214 79.8064 -98.7659
-98.616 79.8732 -80.3887
-100.702 78.9626 -61.6187
-100.311 79.0714 -39.7765
-99.4237 79.9884 -20.3046
-100.403 80.1674 0.303968
-98.4897 79.2311 21.1036
-99.2037 79.3698 40.65
-100.779 78.9217 59.0697
-99.1926 79.6418 80.2413
-98.1011 79.7052 100.976
-100.118 100.89 -99.8679
-100.141 99.7491 -79.9897
-103.233 101.741 -61.8406
-99.4735 99.6835 -41.5597
-101.292 101.553 -20.7631
-98.8266 97.9234 -0.666692
-99.8465 98.8781 21.4722
-100.519 99.804 38.9697
-100.987 100.282 60.2734
-100.761 100.695 80.0273
-100.906 99.9275 99.252
-81.1438 -99.549 -99.9895
-79.596 -99.5433 -78.8123
-79.9564 -100.401 -58.8999
-80.973 -100.47 -39.6425
-79.8528 -101.426 -19.3568
-80.7388 -99.8459 0.198154
-80.2055 -99.4237 20.0689
-77.9134 -101.208 39.8255
-81.4836 -99.0649 61.1536
-80.027 -100.708 80.9358
-80.4211 -100.293 100.172
-80.6973 -77.7437 -99.3836
-80.5212 -81.2336 -80.631
-81.6958 -77.6856 -60.4664
-79.1963 -80.2431 -38.967
-79.3829 -81.8844 -18.6391
-80.0974 -79.7381 -0.154444
-79.2543 -80.2286 20.9069
-78.8581 -79.4193 39.4381
-79.4637 -78.2148 57.9933
-80.4322 -77.9997 79.7315
-78.8698 -80.8524 97.5655
-80.0598 -60.046 -101.352
-79.8942 -59.1426 -80.8827
-79.1557 -60.4433 -60.9778
-79.5401 -60.7143 -40.7827
-79.9238 -58.9721 -19.2604
-79.6173 -59.8133 1.16885
-80.5475 -60.2297 19.9135
-79.1631 -60.2291 39.4255
-78.7232 -60.2634 60.1184
-79.8047 -61.8244 80.6197
-79.4659 -59.5028 98.2865
-80.6087 -39.4048 -96.9812
-79.9251 -40.7848 -77.4768
-79.0711 -38.979 -60.0156
-80.5902 -41.2202 -40.7888
-79.859 -41.5763 -19.5046
-81.0018 -42.4637 0.405881
-82.4928 -39.6608 17.6473
-80.9363 -39.4019 39.2991
-80.2054 -40.667 59.8908
-78.5465 -39.422 77.8657
-80.2052 -38.7926 101.009
-79.9502 -19.4406 -99.2286
-80.6437 -19.8844 -81.0545
-78.9283 -20.5902 -58.8042
-79.0241 -22.093 -38.9968
-79.9395 -18.7116 -19.414
-80.3418 -19.6919 -0.762251
-78.1301 -20.5116 18.1211
-78.693 -19.4106 40.006
-79.1953 -20.0488 60.5128
-80.3893 -18.1654 78.6062
-78.7709 -21.551 99.7461
-80.8168 1.6037 -99.2097
-80.7608 -1.02317 -80.0564
-78.7154 -0.270995 -60.7604
-78.9867 1.5066 -39.6946
-80.4167 0.0141604 -21.4412
-80.4535 -0.261503 -0.277129
-81.5959 0.368365 19.7694
-79.9608 -3.40576 39.5723
-80.1202 -0.815442 61.2029
-79.7708 0.402382 79.2641
-81.1809 -0.732205 99.9157
-80.159 18.4278 -99.3194
-79.7844 19.3786 -79.3525
-79.2276 18.6959 -60.9145
-81.2439 20.0019 -41.1737
-81.0734 20.6915 -22.674
-80.9721 19.9422 1.96337
-81.2367 20.0892 20.7725
-80.1091 20.0722 41.0161
-78.9182 18.5968 57.9948
-80.9205 19.6756 78.4684
-79.8522 19.3359 98.7934
-80.2803 41.3485 -98.9678
-80.4398 40.0381 -80.0088
-80.9292 40.9806 -60.0767
-78.2434 39.9127 -40.2344
-79.1917 39.2016 -20.2573
-77.9044 39.4314 -0.457709
-80.5859 38.9762 17.7678
-81.839 39.6767 39.4755
-80.5487 39.9653 62.1345
-80.3505 41.496 79.9952
-79.5617 39.7341 101.305
-78.713 59.0662 -100.355
-80.2888 60.4988 -79.2971
-80.573 60.7567 -60.1175
-82.6132 60.3356 -38.7846
-79.765 61.5362 -19.1673
-80.6866 60.3459 0.474557
-79.7951 59.8328 20.0959
-79.892 59.9613 39.5787
-82.2335 59.1773 61.5305
-78.8376 60.5001 80.7541
-79.2885 60.9012 98.9215
-80.5898 80.5831 -100.176
-80.0449 79.1017 -80.1469
-79.0767 80.4897 -59.3091
-79.305 80.1293 -41.1515
-80.6567 80.8522 -21.2441
-78.8615 78.0626 -0.778459
-81.4162 79.8678 19.4145
-78.2314 81.8985 42.1245
-81.0079 81.6816 60.618
-79.7698 79.6963 79.9992
-81.7417 79.6214 100.649
-78.8599 99.5648 -100.026
-79.8079 98.828 -79.8032
-81.2224 98.4628 -60.088
-79.6917 97.3856 -40.6264
-79.0894 100.545 -20.0327
-79.0596 100.975 -1.24828
-80.3414 98.4074 21.5558
-79.8514 100.695 41.2001
-79.2834 101.099 59.7606
-81.0187 98.7415 79.9589
-80.0849 101.333 99.105
-60.3557 -97.8802 -101.156
-61.9071 -98.3799 -81.3105
-60.5351 -100.687 -59.504
-59.972 -101.224 -39.7898
-59.9502 -100.534 -20.8378
-59.6315 -100.574 -0.268085
-59.3074 -100.275 22.7323
-59.2025 -99.4077 38.854
-60.0026 -99.7863 59.3344
-61.3697 -101.39 80.2388
-61.4795 -100.441 99.6677
-60.1857 -82.2128 -99.2217
-59.5054 -78.5205 -79.2759
-62.1896 -78.7025 -59.3862
-63.6901 -78.6072 -39.8628
-58.6421 -79.6441 -20.9102
-60.5172 -79.4327 -0.0944537
-59.3776 -80.0844 19.012
-61.6581 -80.1314 39.367
-59.9233 -79.2974 60.0363
-59.5768 -80.1946 79.3635
-59.5069 -79.0215 100.236
-60.5267 -60.1225 -101.749
-61.7709 -59.1991 -81.1619
-58.0461 -60.3816 -61.3433
-60.3988 -59.5481 -39.9746
-60.9088 -59.8518 -19.7323
-60.1076 -61.441 -0.955533
-60.2175 -59.4454 20.3233
-58.9889 -58.4485 42.7627
-58.9549 -60.4801 58.542
-59.182 -59.9181 78.2674
-60.6189 -58.8844 98.3981
-59.1723 -40.605 -99.7762
-58.788 -39.4433 -79.2578
-60.6596 -39.1384 -58.6729
-60.3767 -39.7011 -39.7103
-59.4097 -39.8452 -17.9376
-57.6799 -40.7492 0.63803
-60.2255 -40.7296 19.5266
-61.3697 -40.3861 40.6536
-60.4477 -40.687 61.0918
-60.7686 -41.5785 79.4942
-61.8142 -39.85 100.291
-60.3454 -21.3071 -100.442
-60.0421 -19.2346 -79.3358
-59.3516 -20.8143 -59.4587
-60.4366 -20.26 -38.2889
-59.9054 -19.8128 -20.5636
-59.4033 -22.0159 -0.71524
-59.8682 -17.0617 21.3086
-62.4604 -19.1364 38.1237
-60.6894 -19.4138 59.181
-60.3465 -19.2271 79.885
-59.5907 -19.5032 100.862
-60.8313 1.41692 -99.1979
-59.0177 -0.233778 -79.421
-61.4166 0.372334 -61.6744
-60.1433 -1.1321 -38.9424
-60.3912 1.90977 -20.7433
-58.2853 -1.96622 0.0649547
-60.6046 -0.447613 20.011
-58.4775 0.993141 39.3978
-59.2132 -0.805452 61.3258
-60.3302 0.81273 81.5921
-59.8001 2.84425 99.0321
-59.1794 19.7335 -97.5404
-60.1921 20.4223 -79.337
-59.372 19.7518 -58.0979
-60.9037 20.0678 -40.4223
-59.3602 19.8019 -20.1155
-59.6958 20.3204 2.07679
-60.7303 20.9809 20.2972
-60.6227 19.7673 41.0439
-59.5677 22.0635 59.2672
-61.3289 19.1146 80.7336
-59.4765 19.8343 99.4552
-60.5159 41.0162 -100.186
-61.4301 40.1104 -80.147
-59.3249 40.527 -60.419
-62.0331 40.7323 -39.7863
-59.5595 40.5376 -19.2102
-60.3017 40.8263 -1.33804
-57.0557 39.7988 19.2141
-60.4917 39.6234 40.2677
-59.7625 38.6349 60.4143
-62.1122 39.0264 79.7592
-59.8162 40.5042 100.249
-57.9405 59.5382 -100.522
-60.602 60.4662 -77.8521
-60.8193 58.6835 -56.8883
-58.9919 61.5917 -39.4942
-60.3905 60.9461 -20.4066
-58.7261 58.0987 -1.81088
-60.8396 59.8399 19.4603
-58.7099 61.0048 41.0237
-60.0067 60.8251 60.8887
-58.8699 59.8764 80.7175
-59.7567 59.2516 101.433
-56.9237 78.8929 -99.5733
-60.3049 78.8652 -79.1425
-58.8717 79.7774 -60.7297
-60.0824 81.0599 -39.2589
-59.1989 82.617 -18.9554
-61.0557 81.2045 -0.654356
-60.3316 81.0108 20.1432
-59.3347 80.1196 40.6565
-57.3636 81.2883 58.5095
-61.1684 80.2859 78.8177
-60.0887 81.0117 99.4476
-59.3387 100.724 -98.7603
-61.3429 100.159 -79.3622
-61.625 99.7864 -59.2207
-60.6847 99.0337 -41.3384
-61.0125 100.864 -19.9968
-59.5599 99.3001 -0.928298
-61.6772 98.4614 18.3198
-60.4818 100.504 39.1133
-61.1232 100.755 60.8712
-59.8123 99.9813 77.4184
-58.3365 98.468 98.6646
-40.7865 -99.4475 -100.973
-40.6242 -99.1849 -79.9778
-40.0142 -99.2864 -61.4772
-41.5728 -101.292 -39.6442
-40.2693 -99.6372 -21.0526
-41.7649 -99.4238 -0.617414
-38.6999 -100.189 20.4422
-39.7165 -99.0735 41.3986
-39.975 -98.6796 61.5964
-39.7075 -99.438 79.7587
-40.0415 -99.6984 100.571
-41.0247 -80.6954 -98.9861
-40.5077 -80.6716 -78.2925
-41.0699 -80.4018 -61.6103
-39.8234 -80.6902 -37.8016
-39.9197 -81.2503 -21.1106
-39.368 -79.509 -0.959169
-41.1988 -80.1509 20.1398
-40.9197 -79.8799 37.3049
-38.0025 -78.928 60.365
-40.1722 -80.371 78.9955
-37.951 -79.9592 98.4278
-40.6296 -60.2473 -98.8591
-39.1425 -58.1582 -80.91
-40.585 -60.1128 -57.0849
-41.5263 -60.0349 -40.0277
-39.9422 -60.4487 -19.2133
-38.2223 -58.3929 0.02495
-40.6071 -59.5109 20.2625
-39.9405 -59.7095 40.4768
-40.048 -59.5546 60.365
-37.8665 -60.2422 81.3055
-39.3688 -61.1046 101.55
-40.1825 -39.2968 -99.4401
-41.241 -38.6986 -79.3509
-41.2199 -39.8526 -58.9701
-39.8466 -40.5419 -39.7043
-39.3413 -39.2138 -18.3272
-39.2687 -38.2101 0.434493
-39.8504 -40.4076 20.1084
-39.4082 -40.6578 40.5197
-38.8453 -38.4505 60.7481
-39.3717 -39.3081 79.9208
-40.4303 -38.7237 100.436
-41.1842 -21.1188 -99.7781
-38.7273 -20.4205 -80.8909
-39.5967 -20.0431 -58.0963
-40.9382 -19.0861 -38.3021
-40.2942 -21.0913 -19.3585
-41.7885 -20.1789 2.16084
-41.4187 -21.1442 19.2616
-41.1132 -21.6303 38.7631
-38.9774 -21.169 59.1543
-40.0668 -19.9728 78.7588
-40.5628 -19.347 100.353
-39.3275 1.98024 -101.191
-41.6608 -0.309773 -79.4595
-41.5635 -1.54714 -61.8432
-39.2766 0.415353 -38.5143
-38.6224 0.90023 -19.5505
-39.1439 -0.418915 0.713307
-38.6371 0.495173 21.6642
-40.7013 -0.0452211 39.9592
-39.5514 0.747427 60.3033
-39.5299 -2.03607 79.4098
-37.5253 -0.367674 101.119
-39.0988 19.0171 -100.683
-38.73 19.1862 -78.4516
-39.762 20.6453 -60.6434
-40.7329 22.1961 -40.5151
-39.9235 20.4124 -21.0245
-38.9468 19.4015 0.537623
-39.1371 18.3841 19.9995
-41.0049 19.6217 39.5923
-38.9333 19.8708 58.8971
-41.5899 19.7038 79.8319
-39.2203 20.4667 99.5939
-41.5363 39.9994 -98.9802
-38.2379 40.2617 -80.4196
-39.7698 39.9819 -59.9776
-39.1789 41.8735 -40.1588
-40.001 39.5641 -20.5014
-40.0602 37.6092 0.25561
-39.3007 40.2427 20.9895
-39.1673 37.1043 39.1582
-40.8104 40.4936 60.1472
-41.723 40.5083 79.9805
-37.4068 41.4342 100.217
-41.0391 60.7772 -98.5111
-39.3998 59.9279 -79.138
-40.8137 59.2413 -58.6448
-41.1949 59.1842 -39.8497
-41.5161 61.8632 -20.4888
-38.5926 58.72 -1.46308
-38.8408 60.8325 20.8652
-42.0644 60.8904 39.489
-38.2703 59.2332 59.9073
-40.3395 61.5379 80.5701
-40.5298 59.3399 99.2902
-39.9483 78.1479 -101.826
-39.9432 78.9646 -79.7245
-39.189 79.8115 -59.3427
-41.3923 80.6627 -38.7942
-39.2085 78.7259 -20.3633
-40.3106 81.2463 -0.461495
-41.4069 81.7767 19.5963
-39.3917 80.412 42.879
-41.3891 79.7576 60.3733
-40.1354 78.4755 79.7925
-38.9583 79.5761 101.003
-38.6213 98.7065 -100.835
-41.0157 99.9466 -78.9957
-39.2257 100.817 -59.7103
-39.514 99.594 -39.5282
-38.2463 99.8862 -20.8357
-40.3953 100.354 0.709104
-40.7008 101.505 20.4104
-40.9404 100.995 40.4842
-39.7471 101.366 60.4019
-40.633 100.632 79.5555
-40.0734 99.7248 100.388
-20.7342 -99.9279 -98.9995
-18.7288 -100.49 -80.4708
-19.5309 -99.2196 -61.7883
-19.7343 -100.661 -38.2419
-18.8644 -99.7909 -20.1572
-19.92 -99.6053 -0.343983
-21.0963 -99.1584 17.3672
-19.4774 -99.9591 38.8067
-20.802 -99.933 60.1701
-21.1608 -99.0276 78.9473
-19.4624 -99.9323 101.053
-19.5643 -80.5886 -98.1057
-20.3956 -79.0775 -79.7385
-21.6813 -80.8394 -61.4801
-19.0439 -81.5586 -39.9459
-19.295 -80.2103 -19.2075
-19.0707 -79.4342 0.000303709
-20.7429 -80.0972 20.1132
-20.9776 -81.0145 42.6245
-18.0352 -80.6877 60.83
-18.3446 -79.7703 79.1212
-19.6044 -80.7899 99.8697
-19.3921 -60.511 -98.5709
-19.7239 -60.7729 -80.6235
-18.6414 -57.9512 -59.5216
-22.3567 -60.7462 -41.2947
-19.5345 -59.9358 -21.2913
-19.5801 -61.8767 1.16074
-21.0494 -60.6441 17.7499
-20.2557 -61.0486 39.3797
-20.6544 -61.1212 59.4792
-21.1835 -60.9969 78.1978
-19.516 -59.0616 98.25
-21.3633 -40.9351 -99.9131
-20.1403 -39.8918 -79.2824
-17.7039 -40.8878 -58.5977
-20.1072 -40.6042 -41.235
-18.6726 -39.5429 -21.0602
-20.4131 -41.233 0.675062
-20.9728 -38.6536 18.3911
-19.1368 -39.3638 40.1602
-19.8717 -39.6125 59.2825
-20.4455 -40.4113 80.2619
-21.2011 -41.6125 101.313
-19.4492 -19.1183 -100.16
-20.0838 -21.1862 -80.2648
-19.1279 -20.7981 -60.2696
-19.3555 -19.2201 -40.4785
-20.251 -21.4839 -21.0187
-17.9381 -19.9632 -0.595156
-18.3931 -22.6754 20.3998
-19.2556 -20.1284 38.8728
-20.4075 -18.7588 61.3056
-21.1305 -20.1749 78.5097
-18.5382 -19.1878 99.4585
-20.1087 -0.660682 -100.331
-21.2224 -1.47591 -79.7747
-19.0205 -0.168663 -60.9196
-18.6069 -0.635592 -40.96
-20.3072 0.214112 -19.5984
-20.4979 0.488215 -0.754665
-19.6932 0.0666318 19.9528
-19.4306 1.18744 40.1823
-19.7886 0.706445 60.5926
-20.0304 -0.0950471 79.786
-18.9106 -0.7081 98.5504
-20.8164 19.8343 -98.9977
-20.472 20.9338 -81.3908
-18.0548 20.7525 -60.7661
-21.0738 20.735 -40.7399
-20.102 19.799 -19.5333
-19.5941 20.9308 0.250746
-18.6435 21.0822 19.3234
-18.4667 19.1771 39.207
-20.5125 18.0466 59.3941
-19.131 18.9088 78.7732
-20.3564 19.9367 99.9969
-20.6664 39.2096 -100.405
-19.6895 38.7646 -79.9213
-20.6727 41.0121 -59.3006
-20.1552 39.7975 -40.069
-20.4428 39.6226 -19.7269
-22.4049 39.5811 -1.39666
-18.7935 41.0825 17.1919
-20.1088 39.9762 40.1877
-21.1562 40.4604 60.1903
-18.4921 40.0819 79.2397
-20.1976 40.0885 100.779
-21.2854 58.9853 -99.9342
-21.9206 61.016 -79.8335
-19.7458 59.6231 -60.1155
-19.875 58.228 -40.8022
-19.6592 59.2635 -20.4992
-20.5267 59.1009 -0.069146
-19.4619 59.6779 18.1428
-19.3726 60.3262 40.1973
-19.9129 62.8833 61.6132
-19.3109 60.1905 79.9219
-19.6004 59.2921 97.6558
-19.4708 79.6253 -100.983
-21.0652 81.0854 -80.7452
-19.7832 79.233 -60.2736
-20.4991 77.7002 -39.5611
-19.8415 80.5464 -20.3946
-21.3537 81.5337 0.776045
-17.6448 79.5527 21.1577
-18.9746 80.1876 40.7915
-21.0001 80.7879 61.9045
-18.4423 79.3976 78.7963
-21.3102 82.2253 100.132
-19.528 99.7 -98.7669
-17.4852 100.584 -79.2255
-21.9371 100.581 -60.4557
-20.2105 99.315 -40.6826
-20.952 100.364 -19.3409
-20.2365 100.514 -0.422404
-18.479 99.0431 21.8567
-19.0869 101.298 40.2912
-21.3596 100.294 60.3278
-19.9479 99.5693 79.4069
-20.8383 99.6645 100.264
1.19309 -101.315 -100.475
-1.30506 -100.454 -79.758
0.904309 -99.5468 -58.5186
-0.917341 -99.4569 -40.4006
-0.188894 -100.45 -18.6178
-0.812421 -100.734 0.74671
-0.688012 -100.995 18.7017
-1.01846 -99.8709 39.6475
-0.675569 -100.817 60.8136
-0.67072 -99.6519 79.5786
-1.41567 -99.693 99.9004
1.05733 -79.0024 -100.954
-0.158279 -80.7725 -79.9521
0.760931 -80.6032 -60.8849
0.0606355 -78.9865 -37.9649
-0.605938 -81.9535 -19.0909
-0.348798 -80.547 1.1321
-0.298764 -81.28 18.588
-0.540195 -80.3244 38.4799
-0.234706 -80.0024 61.2814
0.755911 -80.9388 80.4972
0.338783 -78.0793 99.636
1.1175 -61.317 -100.012
-0.114864 -59.0611 -78.7732
0.878881 -59.241 -58.6581
1.15659 -59.3401 -41.1483
0.457443 -60.2707 -19.4809
1.16898 -57.9726 1.29015
-0.297272 -60.0104 21.4589
-0.488963 -59.9666 40.6948
-1.49796 -60.6359 60.0606
0.905777 -61.3046 82.7022
0.603883 -59.2489 101.861
0.986785 -39.084 -100.023
-0.138382 -41.5282 -80.7935
-2.02023 -39.1144 -60.5862
2.76394 -41.5675 -39.8127
-0.454718 -39.7436 -19.887
2.9464 -38.8865 -0.274581
0.480966 -41.3822 21.8825
-0.0328733 -40.4728 40.5098
1.19843 -41.2648 59.2264
0.342387 -40.1418 80.3083
-1.46075 -39.9712 102.909
0.720815 -21.6316 -100.177
-1.31356 -18.9361 -81.447
-0.530878 -18.5831 -60.8495
-0.676993 -19.6063 -39.5948
-0.906488 -20.7879 -21.3739
0.164393 -20.7551 1.14211
-1.08635 -19.8056 19.0358
1.1928 -20.1327 39.5875
-1.96277 -22.0463 59.8172
-0.0687526 -20.5887 80.9755
1.60714 -20.5519 99.1942
0.0122768 0.894755 -100.256
-0.378779 -0.963497 -79.9329
-1.4817 1.3809 -62.1751
-1.5741 1.76038 -40.1241
-1.47225 1.1053 -19.8081
-0.200935 -1.11655 1.44283
-0.647938 -0.152462 20.3945
-0.467034 0.46125 40.158
-0.202375 0.283275 59.7293
1.13733 -0.189022 81.2737
-1.09771 -0.850395 100.163
-0.788131 21.0124 -100.503
-0.652493 19.5823 -79.57
-0.0973374 20.5679 -58.649
0.0363693 19.3326 -38.3652
-1.32565 20.2909 -20.95
0.377865 19.7839 0.643637
0.124033 22.1361 21.1202
-1.3479 19.7796 40.0227
2.18872 20.2507 59.483
-1.43803 18.9349 79.9293
0.646571 20.2804 98.6873
-0.702905 39.8693 -101.139
-0.903461 39.3236 -79.9762
2.54178 39.5575 -59.6828
-0.713194 40.1071 -41.2147
1.06581 41.08 -21.212
0.342075 41.3824 0.614934
-1.42314 38.2035 22.9874
0.323345 39.8607 39.3399
-0.480628 42.3415 58.8649
0.310051 40.6607 79.6476
0.902356 39.9105 100.288
-1.28827 59.5154 -99.5056
-1.69265 59.1286 -77.8062
0.379118 59.2709 -62.6842
0.844296 60.0208 -40.4507
-1.13318 60.4354 -19.4356
-1.22928 59.2731 -0.167575
-0.417045 58.7669 19.0172
0.464952 59.0564 42.3604
-0.954011 60.6142 60.9659
1.8507 60.9927 80.1787
0.435766 60.2664 100.438
0.0353427 79.8484 -98.5096
0.668049 80.0502 -79.5462
0.871084 80.8356 -59.8973
-0.161915 79.0083 -40.4419
-0.252257 80.1708 -17.2093
0.497582 79.0481 1.08556
-0.02105 79.6514 20.2089
-0.417796 79.4984 41.0521
1.22882 81.1301 58.6028
1.03229 80.8201 79.9127
1.06934 80.4795 100.21
-0.156526 101.8 -100.658
-0.369416 100.736 -80.138
-1.0044 100.71 -59.7169
-0.223327 100.928 -42.1515
-0.00335677 99.1197 -18.8768
-1.04669 98.287 0.565878
-1.23965 99.0498 18.9384
0.823329 99.0736 39.9253
0.306981 100.561 61.6183
0.295933 99.4483 79.2397
-0.123644 101.188 99.7118
18.8752 -100.054 -101.828
19.1646 -100.6 -79.2276
19.4281 -101.55 -62.2044
21.4169 -100.153 -40.2856
20.5851 -98.0865 -22.7765
20.1983 -98.7659 0.137674
18.968 -98.924 19.1342
20.3262 -100.088 40.5583
20.0279 -99.3011 60.3271
20.4682 -100.844 79.5432
18.6559 -100.036 98.7374
21.1318 -79.1851 -99.8806
20.4651 -80.2654 -78.9796
18.6426 -79.5151 -59.735
17.2914 -80.6232 -39.6522
19.4881 -81.1449 -21.0588
18.8688 -81.0958 -1.92564
20.6496 -79.1655 17.7486
20.6798 -79.2667 38.8494
19.9991 -80.3516 59.6436
18.6553 -78.9848 78.6973
17.1949 -78.492 100.053
20.5397 -60.3631 -101.855
18.1735 -60.1328 -80.1564
21.2939 -58.9127 -59.1578
19.7336 -61.3176 -40.5261
21.71 -58.4325 -18.8576
19.6382 -58.0308 0.502022
20.3034 -59.1969 20.3577
19.2962 -61.7597 40.9813
20.1881 -58.118 59.228
20.7901 -59.9561 80.0624
18.7873 -58.7963 99.809
20.0929 -40.033 -100.079
20.6611 -40.9924 -79.5544
18.37 -38.063 -60.7188
20.1736 -40.4968 -40.4049
21.3595 -42.9311 -19.7517
20.867 -39.6562 0.352497
20.6408 -40.8269 21.3126
20.1846 -38.8162 41.0764
19.0053 -38.9075 61.288
19.2451 -40.1016 81.7458
20.4974 -40.2164 100.322
18.9636 -20.2482 -100.869
19.0723 -19.3905 -80.8304
19.601 -19.33 -61.1982
19.9835 -19.9814 -40.9056
19.2899 -20.6591 -19.262
20.1478 -18.9974 -1.90678
18.7731 -20.6728 18.0439
19.9191 -19.6856 40.0601
21.0364 -21.6538 58.3593
20.3951 -19.2223 80.6038
20.0375 -19.2201 98.87
20.0068 -2.32027 -99.7567
19.0983 -1.434 -81.2979
20.8124 -0.314725 -59.2578
21.0918 -0.908439 -41.2782
19.3912 0.0204555 -19.6094
20.0519 -0.723317 0.432399
20.978 -2.57185 21.1477
20.9471 1.39188 39.4801
21.8871 -0.903212 59.7264
20.9735 -1.42248 80.0402
20.1049 -0.953635 99.4609
20.4758 20.1341 -99.9064
19.9675 19.1067 -78.9407
20.2247 21.0476 -61.2414
20.5002 18.5108 -40.6037
19.9752 19.5469 -19.5091
19.5585 19.8502 -0.874047
20.126 19.6301 19.0762
19.4825 21.0819 40.4753
18.5578 18.7888 60.0497
18.999 20.3018 80.5425
19.9624 19.6262 100.566
19.3349 39.783 -100.712
19.6159 40.7822 -79.5273
19.4001 39.8354 -59.592
21.0315 40.3452 -42.4804
19.4048 39.7926 -21.3481
23.6869 42.0591 0.70145
21.801 39.442 21.4292
20.0338 39.9721 39.4402
20.8734 38.8795 62.7901
20.2279 40.5661 78.5836
18.3256 40.9932 99.1408
19.3873 59.4889 -100.016
20.2797 60.16 -80.0637
20.2955 59.2616 -60.7033
19.523 59.0246 -40.6201
18.6929 61.1027 -19.6911
19.6471 60.0563 0.405864
20.7626 59.1719 21.5348
18.2528 59.606 41.7339
21.6047 59.5514 60.2606
20.0887 60.1575 78.8993
20.1504 59.9549 99.4048
19.3619 78.364 -99.3597
19.9015 79.9596 -79.0031
21.0374 78.4302 -59.6381
20.8445 80.2314 -39.8563
20.0975 79.9051 -20.5134
19.1203 78.8876 0.932428
20.8706 78.3062 20.2337
19.8848 79.6512 40.3744
19.687 79.9577 60.2217
18.6954 78.4553 78.6551
17.875 79.8686 99.5838
22.2036 101.171 -101.772
20.0294 100.574 -80.6456
19.3279 99.9612 -59.5291
18.6675 100.169 -41.2326
19.8232 99.6991 -21.3012
19.6448 100.154 -0.53253
21.4093 99.5468 19.956
20.1317 101.283 39.5095
19.9371 99.0385 61.2128
21.5188 99.6882 80.9136
20.8631 99.5454 98.3515
41.4842 -99.4816 -98.6645
39.1157 -99.084 -80.5395
39.9826 -99.4596 -60.2626
40.8258 -99.7512 -40.3471
39.7786 -100.859 -19.8021
41.07 -100.997 0.0033116
40.294 -100.866 20.0375
40.4217 -100.696 39.1783
40.0639 -99.981 59.9852
40.1003 -99.7115 79.9724
38.9778 -101.189 98.2756
39.795 -81.3402 -100.904
40.167 -78.3374 -80.1191
38.66 -80.5988 -59.7904
39.2647 -79.9424 -39.8886
40.7805 -79.9304 -20.5554
40.4776 -79.4823 0.312919
39.3554 -78.8589 20.6976
40.22 -79.7047 39.5578
39.8374 -79.1161 59.7398
41.8476 -80.9964 78.2599
39.4026 -81.4117 100.782
39.4736 -60.1329 -100.004
38.1613 -63.1836 -80.4311
38.8506 -60.4199 -60.5208
39.9159 -61.6216 -41.8157
40.2877 -60.0179 -20.3238
40.1756 -58.7225 -0.779824
39.3221 -60.568 19.871
40.7444 -60.7524 38.9437
41.2268 -61.5993 57.18
40.7202 -59.0905 77.7587
39.8171 -58.7922 97.3781
41.5859 -38.9127 -100.115
39.2636 -39.5292 -80.9055
40.4124 -40.4622 -61.2991
36.6663 -39.8594 -39.2901
40.6441 -41.6842 -20.6544
40.1539 -40.4956 0.186311
40.2251 -39.5334 19.8388
37.604 -38.8171 40.2792
40.2083 -39.5963 60.5011
40.722 -40.8975 78.7891
39.7497 -39.8264 100.339
38.3592 -19.9206 -101.583
40.3353 -19.4022 -77.8796
38.3821 -20.2452 -61.6424
39.0006 -20.0983 -38.2731
38.3676 -20.8508 -20.9401
38.8679 -20.9581 -1.19288
40.7637 -18.5007 21.3552
42.3146 -20.5682 41.182
41.1108 -21.6099 59.9437
40.8779 -18.967 79.4981
40.5287 -18.8167 98.6917
40.9391 -0.45392 -100.236
41.9768 0.545527 -80.3162
39.3624 -2.11758 -60.8281
39.9758 1.47014 -40.6984
39.5632 1.29173 -19.6895
40.2363 0.174022 -0.877932
41.1323 1.72526 18.0773
41.9486 -0.650876 41.2152
37.0145 0.417802 58.8589
40.0235 0.851823 78.9889
41.578 -0.549329 98.1366
38.2727 20.8617 -99.1361
39.5411 21.7347 -79.1636
39.7398 20.1886 -59.6189
40.4353 17.2278 -38.9371
39.6412 20.8743 -19.4969
40.8099 18.4324 0.420068
39.5658 19.1465 21.2111
38.8726 18.0486 39.2502
41.1893 20.0232 58.4136
39.3809 19.4284 79.003
39.4698 19.7726 98.6547
41.3755 40.5183 -99.9806
39.4333 39.99 -79.7737
41.063 40.2902 -60.7099
39.9359 38.419 -39.1695
38.3275 40.4448 -20.1099
41.5212 40.8774 -1.07925
41.6945 39.7367 19.0837
37.7392 39.0098 38.0499
39.6545 39.2204 60.4666
38.9097 40.3745 79.2505
40.4289 40.3561 98.3964
39.7511 60.6683 -102.111
39.7513 60.0323 -81.1689
40.7328 62.2487 -59.6409
40.1668 60.5745 -40.1831
42.2264 59.3443 -20.0852
40.7637 57.4732 -1.0009
38.8658 59.5988 18.8888
39.1453 60.0393 40.1196
40.6148 58.7124 60.1762
40.99 59.8087 79.5233
40.0147 60.6725 99.3339
38.863 80.6547 -101.2
41.5802 80.4134 -80.4194
40.2175 80.1035 -61.443
39.7232 78.8023 -41.7473
39.0698 80.4474 -19.481
38.8466 80.0082 -0.686563
40.1907 78.8827 18.5489
40.0373 80.5212 41.0025
40.5728 78.9249 60.2813
40.6441 80.1316 81.4199
41.1197 79.6516 99.4482
39.3203 101.296 -99.2349
40.9625 102.261 -80.1901
41.3902 100.825 -58.7841
39.7379 99.2633 -39.5755
39.5889 100.049 -18.2523
37.5254 100.914 0.18099
39.6057 99.979 22.0081
41.6671 98.3057 40.0064
39.6227 100.741 59.3764
39.1958 100.493 79.9894
38.6726 98.8634 100.359
59.8921 -99.6323 -101.768
58.8532 -99.8793 -79.7029
61.2496 -99.5785 -60.6671
59.5907 -100.216 -38.6078
61.1322 -100.968 -20.1039
60.0324 -97.9029 -0.510956
61.6295 -100.767 20.0645
59.7141 -100.029 40.7437
60.2207 -98.9259 61.1656
60.3739 -101.013 78.769
60.2384 -100.718 98.1176
62.5828 -77.916 -98.8726
60.0045 -80.4764 -80.795
60.4033 -80.3289 -58.0149
57.4631 -80.1163 -40.1141
59.56 -81.0343 -18.982
59.2043 -80.5625 0.258286
60.1884 -80.4939 20.2743
60.4416 -79.8915 40.0629
60.9899 -80.9856 59.8243
59.9276 -79.8487 80.3426
60.4067 -79.2128 99.118
59.6297 -60.3987 -99.6673
58.9152 -60.1606 -79.5155
60.767 -60.8192 -58.2651
60.5784 -60.2895 -38.372
59.9377 -59.8225 -17.8863
61.1383 -60.5404 -0.15834
59.7419 -60.8896 21.5066
59.4382 -59.5347 41.7838
59.4225 -60.8412 61.7692
60.9979 -61.7549 80.2552
60.1256 -57.4124 97.8608
60.7725 -41.29 -100.793
61.2679 -39.6892 -80.5854
59.166 -39.2345 -61.2364
58.8496 -39.4211 -39.8582
60.7416 -40.7634 -20.9564
60.768 -40.2996 0.934226
59.0554 -41.3332 20.7047
57.8462 -38.6789 39.6454
60.0523 -40.0262 60.3173
60.3865 -40.7231 78.5926
59.3078 -39.6216 98.423
58.5993 -20.2278 -101.329
59.9288 -21.7387 -80.4814
59.5326 -20.975 -60.1221
59.9479 -19.219 -40.8725
59.8452 -21.3866 -19.4269
59.5409 -18.878 -0.601362
59.8855 -19.9892 19.8169
59.6302 -18.9872 38.8417
61.154 -20.6496 58.5738
57.9753 -21.2956 77.4067
60.4056 -20.0826 99.8874
59.4729 2.77795 -100.449
61.3707 -0.191952 -79.9295
59.5144 -0.760333 -58.3623
58.4695 0.481177 -39.8847
59.0347 0.83588 -20.1345
60.0352 1.46274 -1.48607
59.4565 -0.275566 21.2365
59.1167 -0.913103 39.6626
59.4378 0.559039 59.581
59.5884 -0.510639 80.4076
58.0775 -1.76265 100.903
59.6536 20.1103 -99.6283
61.162 19.634 -80.1136
60.2624 21.3061 -58.274
61.3788 19.4943 -40.6243
61.8587 19.0457 -18.9663
61.1742 18.4305 -0.96224
58.9236 19.2743 22.2968
59.23 19.9223 40.3363
60.2178 20.3425 60.0856
60.8262 21.2596 79.7086
59.4401 21.3042 100.407
59.7352 41.0325 -100.753
59.4433 42.2287 -79.6487
59.2492 41.3647 -58.27
58.8459 38.9461 -40.843
61.0752 38.4954 -21.1451
59.9789 41.1577 -2.61582
58.9805 39.7008 18.3313
61.5465 39.966 41.7582
59.8668 36.9241 59.9891
60.5973 39.1274 80.4432
60.0271 40.0811 98.3619
58.3575 59.5423 -100.617
59.9697 59.2462 -80.6911
61.0477 58.1804 -59.8039
58.878 61.4442 -40.6849
58.9637 60.5549 -20.888
59.39 58.1118 0.241832
58.4657 59.6292 19.6046
59.5993 58.6743 39.9359
59.5265 58.5845 61.3457
57.5784 58.5947 79.661
57.6975 60.5908 100.757
60.0061 81.6685 -100.678
59.8156 79.5922 -78.9956
59.5083 81.1181 -59.7735
59.0585 79.6228 -39.6474
59.0775 80.8433 -18.8293
59.7943 80.0201 -2.68629
60.5117 78.7128 21.263
60.398 80.1796 39.6941
61.4995 79.7352 62.6397
58.8009 78.629 79.6615
58.4305 80.8987 99.783
60.5966 101.495 -99.69
60.1236 100.758 -81.0785
61.7633 100.892 -59.1786
60.737 98.0599 -38.9115
60.6418 101.072 -20.0928
58.6782 100.845 -0.134365
60.7913 100.761 20.4571
62.3578 99.6246 39.8674
60.7209 99.8409 59.3589
59.4675 99.3248 80.4132
59.29 99.8834 99.9745
79.2903 -99.9207 -99.2708
78.4664 -100.572 -80.6734
82.2305 -99.1942 -58.2714
79.408 -99.4851 -40.3728
80.1213 -100.618 -20.2666
80.8321 -99.138 0.132799
80.0825 -100.028 18.4446
80.1403 -99.9351 39.3969
79.9558 -98.5622 61.6762
78.9402 -98.4038 80.6326
78.9253 -101.2 100.901
81.3381 -79.7094 -100.692
80.2111 -79.4293 -80.065
80.1176 -77.0459 -61.229
78.514 -77.1928 -38.4605
79.6725 -80.6046 -21.782
78.2509 -79.1508 0.994931
81.2249 -79.3748 19.8487
80.2991 -81.2692 40.0471
80.7995 -78.1549 59.1546
80.7746 -78.5054 78.8212
79.877 -78.2004 100.426
80.5433 -59.3184 -100.697
78.8184 -59.6904 -80.8791
81.4403 -60.8701 -60.902
79.7187 -59.8747 -39.5416
80.4486 -59.6645 -19.1313
80.1124 -61.5546 -0.734626
82.3806 -60.8408 19.4996
79.4624 -59.6398 41.0788
80.2232 -58.631 58.0019
78.4141 -62.037 80.4666
77.4765 -60.9165 99.6673
79.4016 -40.5211 -99.5815
79.709 -40.939 -77.5794
81.0647 -38.2541 -60.2614
78.1255 -39.99 -40.4417
78.8808 -40.4559 -20.18
81.3857 -39.781 1.21178
79.2243 -40.2156 19.524
79.0394 -39.6754 39.596
80.7675 -40.9235 58.7112
78.4537 -39.5653 81.5021
80.0371 -38.5753 100.327
80.4962 -18.7477 -99.1595
78.9918 -18.7896 -81.2317
80.5015 -19.0515 -59.4481
79.8446 -20.7212 -41.045
80.8957 -20.7654 -20.1921
78.796 -19.6999 -0.155785
81.0983 -18.6907 19.3056
80.2186 -20.3062 40.4144
80.6139 -19.905 59.265
80.0766 -20.2803 80.4514
79.3307 -18.3978 101.039
78.4569 -0.290513 -98.656
81.7644 -0.16764 -81.3774
80.2571 -0.410018 -59.7836
79.8803 0.621071 -39.8067
79.4917 1.84607 -20.1571
81.1403 1.54431 -0.674867
80.7663 -2.08125 19.8006
80.3016 -0.104182 39.9664
79.7644 0.463104 61.4024
78.928 0.844461 80.4471
79.5381 0.0867692 101.533
81.7956 19.7101 -100.671
80.5502 19.2392 -80.1984
80.9366 19.9261 -60.8151
81.9482 20.6371 -38.9542
81.2148 19.8881 -20.4837
79.477 20.2388 -0.126532
79.1144 20.4681 20.6354
80.8041 20.7951 39.3656
79.8163 20.0919 58.2209
80.272 18.886 82.7287
80.9193 18.5569 99.5234
81.462 39.8038 -101.656
81.0927 41.6528 -78.676
77.8676 40.2315 -59.1255
78.7394 41.0387 -40.1897
81.2719 39.5057 -19.6797
80.799 39.4165 -0.0556296
81.4741 41.4822 19.8763
79.7539 40.3426 40.4749
79.5916 39.7098 59.5101
81.1194 39.2845 80.6492
79.1719 40.2645 100.156
78.6488 58.5509 -98.0072
80.4798 59.4816 -79.7988
78.8076 60.115 -60.0289
79.36 60.2646 -40.0763
79.161 58.0465 -20.5358
81.9548 58.6912 -1.15383
80.5801 60.3143 19.4879
81.1629 59.0702 38.8038
78.277 60.5647 59.1361
78.8359 59.04 79.5251
79.6484 61.3469 98.7642
78.7384 79.8468 -99.4005
78.5672 78.2037 -80.3914
80.0015 79.8872 -61.3256
80.2143 80.3926 -40.8384
79.7776 79.8431 -19.5792
79.945 80.6809 1.73392
78.7535 80.3336 16.6612
79.1324 81.4329 38.0564
81.223 79.4438 58.6476
79.7007 82.1242 80.7138
80.1194 79.6825 100.896
80.4166 101.222 -99.1647
80.2278 98.2016 -80.1553
80.1036 100.122 -61.0756
80.0966 99.8259 -39.2519
78.4631 100.577 -18.152
79.3553 101.639 0.681963
79.9779 99.7895 20.0114
81.282 99.4704 37.8393
80.7391 100.368 60.321
79.9209 101.194 79.5925
80.0732 98.6488 100.699
102.208 -100.79 -97.7999
99.7884 -99.3829 -82.517
100.193 -98 -60.4328
99.8133 -99.703 -40.0933
99.4645 -101.986 -19.3097
100.669 -100.514 2.6339
100.983 -102.527 20.4052
99.3955 -99.4423 40.0762
100.679 -99.6296 61.0221
98.934 -100.531 78.9639
100.122 -99.5302 99.7111
98.6195 -83.1199 -101.484
99.7546 -79.496 -80.2834
99.5234 -81.8268 -60.1977
100.301 -78.2554 -39.6614
98.2013 -80.0572 -19.9457
101.231 -81.4736 0.594874
98.6698 -77.6588 19.4233
102.514 -80.8353 40.8663
99.4595 -81.2979 60.4192
100.275 -79.6574 79.4182
99.9174 -80.1739 100.262
100.112 -58.4991 -102.04
97.6878 -59.8657 -77.9109
99.6842 -60.244 -57.9582
100.061 -60.0068 -41.0606
100.42 -59.2247 -21.7298
98.4253 -60.4238 -1.33204
99.6711 -59.3862 19.0474
99.6784 -58.1755 39.1953
97.768 -62.1714 61.2443
99.5634 -59.9406 80.33
98.9062 -59.2546 100.245
98.8342 -40.4601 -100.635
100.486 -36.8315 -81.5892
100.282 -41.2664 -61.6616
101.285 -40.605 -40.8951
101.951 -40.1396 -19.7787
99.1487 -40.1297 -2.15339
100.736 -40.7454 22.1116
99.9374 -42.2527 39.9008
99.0242 -40.7419 59.4035
97.9653 -38.5715 79.8073
101.14 -39.6307 100.186
99.4298 -20.2718 -100.065
98.612 -19.6029 -79.1286
101.294 -19.8478 -59.4584
99.181 -21.1428 -39.2047
98.7138 -20.1338 -21.0277
100.675 -20.7282 -0.853857
99.189 -19.6169 18.4831
98.8876 -20.3859 39.496
102.144 -21.2267 60.9716
100.606 -20.6162 78.835
101.388 -18.8082 100.118
99.6073 -0.901702 -99.0038
100.883 1.5683 -78.8113
100.662 0.524761 -59.2059
100.096 -0.228292 -40.0772
98.8857 -1.66033 -19.466
100.48 1.3183 -0.0464018
99.0608 -0.0261661 19.6297
99.3168 0.152357 39.6279
100.945 0.51656 59.7071
99.7089 0.681715 79.5045
100.217 1.76178 100.364
101.03 20.503 -100.621
98.1208 20.9076 -78.2967
101.218 19.5216 -61.2072
99.5309 22.0846 -40.2683
102.565 19.1616 -21.2753
97.7738 20.7299 0.196912
98.9765 20.852 20.1246
