ply
format ascii 1.0
comment created by 3d_to_ply
element vertex 50
property float32 x
property float32 y
property float32 z
property uint8 red
property uint8 green
property uint8 blue
end_header
17.480760 19.722435 10.000000 255 255 255
13.150637 22.222429 10.000000 255 255 255
8.820508 24.722432 10.000000 255 255 255
4.490395 27.222408 10.000000 255 255 255
0.160231 29.722472 10.000000 255 255 255
17.480760 19.722435 5.000000 255 255 255
13.150637 22.222429 5.000000 255 255 255
8.820508 24.722432 5.000000 255 255 255
4.490395 27.222408 5.000000 255 255 255
0.160231 29.722472 5.000000 255 255 255
17.480760 19.722435 0.000000 255 255 255
13.150637 22.222429 0.000000 255 255 255
8.820508 24.722432 0.000000 255 255 255
4.490395 27.222408 0.000000 255 255 255
0.160231 29.722472 0.000000 255 255 255
17.480760 19.722435 -5.000000 255 255 255
13.150637 22.222429 -5.000000 255 255 255
8.820508 24.722432 -5.000000 255 255 255
4.490395 27.222408 -5.000000 255 255 255
0.160231 29.722472 -5.000000 255 255 255
17.480760 19.722435 -10.000000 255 255 255
13.150637 22.222429 -10.000000 255 255 255
8.820508 24.722432 -10.000000 255 255 255
4.490395 27.222408 -10.000000 255 255 255
0.160231 29.722472 -10.000000 255 255 255
17.480760 21.722435 8.000000 255 255 255
14.016660 23.722433 8.000000 255 255 255
10.552559 25.722432 8.000000 255 255 255
7.088458 27.722430 8.000000 255 255 255
3.624357 29.722429 8.000000 255 255 255
17.480760 21.722435 4.000000 255 255 255
14.016660 23.722433 4.000000 255 255 255
10.552559 25.722432 4.000000 255 255 255
7.088458 27.722430 4.000000 255 255 255
3.624357 29.722429 4.000000 255 255 255
17.480760 21.722435 0.000000 255 255 255
14.016660 23.722433 0.000000 255 255 255
10.552559 25.722432 0.000000 255 255 255
7.088458 27.722430 0.000000 255 255 255
3.624357 29.722429 0.000000 255 255 255
17.480760 21.722435 -4.000000 255 255 255
14.016660 23.722433 -4.000000 255 255 255
10.552559 25.722432 -4.000000 255 255 255
7.088458 27.722430 -4.000000 255 255 255
3.624357 29.722429 -4.000000 255 255 255
17.480760 21.722435 -8.000000 255 255 255
14.016660 23.722433 -8.000000 255 255 255
10.552559 25.722432 -8.000000 255 255 255
7.088458 27.722430 -8.000000 255 255 255
3.624357 29.722429 -8.000000 255 255 255
