ply
format ascii 1.0
element vertex 1777
property float x
property float y
property float z
end_header
0.38828 0.847711 0.361421
0.388892 0.849048 0.357604
0.390336 0.852199 0.348419
0.391277 0.854254 0.342276
0.392087 0.856022 0.33689
0.394982 0.862343 0.316787
0.395197 0.862813 0.315235
0.401071 0.875637 0.269077
0.401345 0.876234 0.266713
0.402328 0.878381 0.258029
0.404523 0.883172 0.237421
0.405003 0.884221 0.23265
0.406311 0.887077 0.219101
0.409269 0.893535 0.184648
0.409824 0.894746 0.177407
0.412408 0.900389 0.138633
0.412687 0.900997 0.13377
0.414835 0.905687 0.0874274
0.00238908 0.0052047 0.999984
0.0187651 0.0408805 0.998988
0.0204697 0.044594 0.998795
0.0211515 0.0460792 0.998714
0.022174 0.0483068 0.998586
0.032731 0.0713057 0.996917
0.0357923 0.0779749 0.996313
0.171548 0.373724 0.911538
0.171859 0.374402 0.911201
0.178365 0.388574 0.903989
0.178673 0.389246 0.903639
0.178981 0.389917 0.903288
0.17929 0.390589 0.902937
0.180521 0.393272 0.901526
0.180829 0.393942 0.901172
0.181136 0.394612 0.900817
0.181444 0.395282 0.900461
0.221743 0.483075 0.847035
0.225201 0.49061 0.841776
0.225489 0.491235 0.841334
0.256927 0.559725 0.787843
0.257465 0.560896 0.786834
0.258001 0.562065 0.785823
0.317221 0.691077 0.649448
0.317443 0.69156 0.648826
0.317664 0.692042 0.648203
0.317885 0.692524 0.64758
0.318767 0.694446 0.645083
0.320085 0.697316 0.641324
0.332002 0.723278 0.605511
0.332208 0.723728 0.60486
0.332827 0.725075 0.602903
0.333032 0.725523 0.602251
0.333443 0.726418 0.600943
0.333648 0.726864 0.600289
0.33528 0.730419 0.595042
0.336494 0.733065 0.59109
0.337099 0.734381 0.589108
0.340484 0.741757 0.577813
0.340681 0.742186 0.577145
0.34225 0.745603 0.571788
0.352085 0.767029 0.536379
0.365637 0.796554 0.481467
0.377411 0.822205 0.426075
0.377557 0.822521 0.425335
0.377847 0.823152 0.423854
0.377991 0.823467 0.423113
0.378135 0.823782 0.422371
0.378423 0.824409 0.420887
0.382618 0.833548 0.398499
0.383966 0.836483 0.390982
0.384497 0.837641 0.387968
0.388973 0.847393 0.361421
0.389587 0.848729 0.357604
0.391033 0.851879 0.348419
0.391976 0.853933 0.342276
0.392787 0.855701 0.33689
0.395687 0.862019 0.316787
0.395903 0.862489 0.315235
0.401787 0.875308 0.269077
0.402062 0.875906 0.266713
0.403047 0.878052 0.258029
0.405726 0.883889 0.23265
0.407037 0.886744 0.219101
0.41 0.893199 0.184648
0.410556 0.894411 0.177407
0.413145 0.900051 0.138633
0.413424 0.900659 0.13377
0.415576 0.905347 0.0874274
0.00239334 0.00520274 0.999984
0.0187986 0.0408651 0.998988
0.0205062 0.0445773 0.998795
0.0211892 0.0460619 0.998714
0.0222135 0.0482887 0.998586
0.0327894 0.0712789 0.996917
0.0358561 0.0779456 0.996313
0.172789 0.375615 0.910526
0.1731 0.376292 0.910187
0.173411 0.376968 0.909848
0.174654 0.379671 0.908485
0.174965 0.380346 0.908143
0.175275 0.381021 0.9078
0.175586 0.381696 0.907457
0.175896 0.38237 0.907113
0.176206 0.383044 0.906768
0.176516 0.383718 0.906423
0.181767 0.395133 0.900461
0.186677 0.405808 0.894691
0.186983 0.406472 0.894325
0.187289 0.407137 0.893959
0.187595 0.407801 0.893592
0.1879 0.408465 0.893224
0.188205 0.409129 0.892856
0.222138 0.482894 0.847035
0.225603 0.490425 0.841776
0.22589 0.491051 0.841334
0.257385 0.559515 0.787843
0.257654 0.5601 0.787339
0.257923 0.560685 0.786834
0.258461 0.561854 0.785823
0.317564 0.690335 0.65007
0.319335 0.694185 0.645083
0.320655 0.697054 0.641324
0.326283 0.709288 0.624859
0.327561 0.712066 0.62102
0.332386 0.722556 0.606162
0.3328 0.723456 0.60486
0.333007 0.723905 0.604208
0.333626 0.72525 0.602251
0.333832 0.725698 0.601597
0.334243 0.726591 0.600289
0.335877 0.730145 0.595042
0.337699 0.734105 0.589108
0.340497 0.740187 0.579815
0.341485 0.742336 0.576477
0.342859 0.745323 0.571788
0.366289 0.796255 0.481467
0.378084 0.821896 0.426075
0.37823 0.822212 0.425335
0.37852 0.822843 0.423854
0.378665 0.823158 0.423113
0.378809 0.823472 0.422371
0.379098 0.824099 0.420887
0.3833 0.833234 0.398499
0.38465 0.836168 0.390982
0.385182 0.837326 0.387968
0.389667 0.847074 0.361421
0.390281 0.84841 0.357604
0.39173 0.851559 0.348419
0.392674 0.853612 0.342276
0.396501 0.86193 0.316011
0.402778 0.875576 0.266713
0.403765 0.877722 0.258029
0.406449 0.883557 0.23265
0.41073 0.892864 0.184648
0.411287 0.894075 0.177407
0.413881 0.899713 0.138633
0.414161 0.90032 0.13377
0.416316 0.905007 0.0874274
0.00239759 0.00520078 0.999984
0.018832 0.0408497 0.998988
0.0205427 0.0445605 0.998795
0.0212268 0.0460446 0.998714
0.022253 0.0482705 0.998586
0.0328477 0.0712521 0.996917
0.0359199 0.0779162 0.996313
0.18209 0.394985 0.900461
0.184246 0.399661 0.897956
0.184554 0.400328 0.897595
0.184861 0.400995 0.897234
0.185168 0.401661 0.896873
0.185476 0.402328 0.896511
0.222533 0.482712 0.847035
0.226292 0.490866 0.841334
0.22658 0.491491 0.840891
0.226868 0.492115 0.840448
0.257843 0.559304 0.787843
0.258921 0.561642 0.785823
0.318129 0.690075 0.65007
0.318574 0.69104 0.648826
0.319018 0.692003 0.64758
0.319903 0.693924 0.645083
0.320124 0.694403 0.644457
0.326649 0.708557 0.625498
0.326863 0.709021 0.624859
0.327077 0.709485 0.624221
0.327931 0.711337 0.621661
0.328143 0.711798 0.62102
0.331309 0.718665 0.611354
0.333185 0.722734 0.605511
0.333392 0.723183 0.60486
0.333599 0.723633 0.604208
0.334837 0.726317 0.600289
0.3383 0.733829 0.589108
0.342093 0.742056 0.576477
0.352233 0.764052 0.540516
0.378756 0.821586 0.426075
0.378902 0.821902 0.425335
0.379193 0.822533 0.423854
0.379338 0.822848 0.423113
0.379483 0.823162 0.422371
0.379772 0.823788 0.420887
0.383982 0.832921 0.398499
0.384931 0.834979 0.39324
0.385334 0.835853 0.390982
0.385867 0.837011 0.387968
0.390359 0.846755 0.361421
0.390975 0.848091 0.357604
0.392426 0.851238 0.348419
0.393372 0.853291 0.342276
0.394187 0.855057 0.33689
0.403494 0.875247 0.266713
0.404483 0.877391 0.258029
0.407172 0.883224 0.23265
0.411461 0.892527 0.184648
0.412019 0.893738 0.177407
0.414617 0.899374 0.138633
0.414897 0.899981 0.13377
0.417057 0.904666 0.0874274
0.00240185 0.00519882 0.999984
0.0188654 0.0408343 0.998988
0.0205791 0.0445437 0.998795
0.0212645 0.0460272 0.998714
0.0222925 0.0482523 0.998586
0.0329059 0.0712252 0.996917
0.0359836 0.0778868 0.996313
0.182413 0.394835 0.900461
0.222928 0.48253 0.847035
0.226982 0.491305 0.840891
0.227271 0.491929 0.840448
0.2583 0.559093 0.787843
0.25857 0.559678 0.787339
0.25938 0.56143 0.785823
0.313735 0.679081 0.663641
0.313962 0.679574 0.663028
0.31419 0.680066 0.662416
0.314417 0.680558 0.661803
0.314871 0.68154 0.660575
0.318693 0.689814 0.65007
0.318916 0.690297 0.649448
0.320471 0.693662 0.645083
0.327657 0.709217 0.624221
0.327872 0.709681 0.623581
0.328085 0.710144 0.622941
0.331897 0.718394 0.611354
0.334398 0.723808 0.603556
0.334605 0.724256 0.602903
0.335225 0.725597 0.600943
0.335431 0.726043 0.600289
0.3389 0.733552 0.589108
0.342699 0.741776 0.576477
0.344078 0.744761 0.571788
0.352858 0.763763 0.540516
0.379428 0.821276 0.426075
0.379574 0.821592 0.425335
0.37972 0.821908 0.424595
0.380011 0.822537 0.423113
0.380156 0.822851 0.422371
0.380445 0.823477 0.420887
0.384663 0.832606 0.398499
0.385614 0.834664 0.39324
0.386017 0.835538 0.390982
0.386552 0.836695 0.387968
0.391052 0.846435 0.361421
0.391669 0.847771 0.357604
0.393122 0.850917 0.348419
0.39407 0.852969 0.342276
0.394886 0.854734 0.33689
0.40421 0.874916 0.266713
0.4052 0.87706 0.258029
0.412191 0.89219 0.184648
0.41275 0.8934 0.177407
0.415353 0.899034 0.138633
0.415633 0.899641 0.13377
0.417797 0.904324 0.0874274
0.0024061 0.00519685 0.999984
0.0188988 0.0408189 0.998988
0.0206155 0.0445268 0.998795
0.0213021 0.0460098 0.998714
0.0223319 0.048234 0.998586
0.0329642 0.0711982 0.996917
0.0360473 0.0778574 0.996313
0.182736 0.394686 0.900461
0.223323 0.482347 0.847035
0.227384 0.491119 0.840891
0.227673 0.491743 0.840448
0.258757 0.558881 0.787843
0.259839 0.561218 0.785823
0.321038 0.693399 0.645083
0.326081 0.704291 0.630591
0.326298 0.704759 0.629956
0.326514 0.705226 0.62932
0.32673 0.705693 0.628684
0.326946 0.70616 0.628048
0.329734 0.712181 0.619736
0.333742 0.720837 0.607462
0.33395 0.721288 0.606812
0.334159 0.721738 0.606162
0.334367 0.722188 0.605511
0.336025 0.725769 0.600289
0.3395 0.733274 0.589108
0.343306 0.741495 0.576477
0.379954 0.820648 0.426815
0.3801 0.820965 0.426075
0.380246 0.821281 0.425335
0.380393 0.821597 0.424595
0.380538 0.821912 0.423854
0.380829 0.82254 0.422371
0.381119 0.823166 0.420887
0.385344 0.832291 0.398499
0.386701 0.835222 0.390982
0.387236 0.836378 0.387968
0.391744 0.846115 0.361421
0.392362 0.84745 0.357604
0.393818 0.850595 0.348419
0.394768 0.852646 0.342276
0.395585 0.854411 0.33689
0.404926 0.874585 0.266713
0.405918 0.876728 0.258029
0.412921 0.891853 0.184648
0.413481 0.893062 0.177407
0.416088 0.898694 0.138633
0.416369 0.899301 0.13377
0.418536 0.903982 0.0874274
0.00241035 0.00519488 0.999984
0.0189322 0.0408034 0.998988
0.020652 0.0445099 0.998795
0.0213398 0.0459923 0.998714
0.0223714 0.0482157 0.998586
0.0330224 0.0711713 0.996917
0.036111 0.0778278 0.996313
0.183059 0.394536 0.900461
0.223717 0.482164 0.847035
0.227496 0.490309 0.841334
0.227786 0.490933 0.840891
0.258943 0.558085 0.788346
0.259215 0.558669 0.787843
0.259486 0.559254 0.787339
0.259757 0.559838 0.786834
0.260028 0.560422 0.786329
0.260298 0.561005 0.785823
0.311162 0.670629 0.673375
0.311394 0.671129 0.67277
0.311626 0.671628 0.672165
0.311857 0.672126 0.671559
0.312088 0.672624 0.670953
0.312319 0.673122 0.670346
0.320938 0.691698 0.646956
0.321383 0.692658 0.645708
0.321605 0.693137 0.645083
0.321827 0.693615 0.644457
0.324913 0.700265 0.635657
0.325132 0.700737 0.635025
0.32535 0.701208 0.634393
0.328387 0.707753 0.625498
0.328602 0.708217 0.624859
0.328818 0.70868 0.624221
0.329032 0.709143 0.623581
0.329889 0.710991 0.62102
0.330103 0.711451 0.620378
0.330317 0.711911 0.619736
0.333703 0.719209 0.60941
0.333912 0.719661 0.608761
0.335582 0.72326 0.603556
0.33579 0.723708 0.602903
0.335997 0.724155 0.602251
0.336619 0.725493 0.600289
0.338879 0.730364 0.593068
0.339083 0.730804 0.592409
0.339287 0.731244 0.591749
0.3401 0.732996 0.589108
0.343913 0.741214 0.576477
0.344902 0.743347 0.57313
0.345297 0.744197 0.571788
0.345493 0.744621 0.571117
0.34569 0.745044 0.570445
0.380625 0.820337 0.426815
0.380772 0.820654 0.426075
0.381065 0.821285 0.424595
0.381211 0.8216 0.423854
0.381502 0.822228 0.422371
0.381792 0.822854 0.420887
0.386025 0.831976 0.398499
0.387384 0.834905 0.390982
0.38792 0.836061 0.387968
0.392437 0.845794 0.361421
0.393055 0.847129 0.357604
0.394514 0.850272 0.348419
0.395466 0.852323 0.342276
0.396284 0.854087 0.33689
0.405641 0.874254 0.266713
0.406635 0.876396 0.258029
0.409338 0.882222 0.23265
0.414211 0.892724 0.177407
0.416823 0.898354 0.138633
0.417105 0.89896 0.13377
0.419276 0.903639 0.0874274
0.0024146 0.00519291 0.999984
0.0189656 0.0407879 0.998988
0.0206884 0.044493 0.998795
0.0213774 0.0459749 0.998714
0.0224108 0.0481974 0.998586
0.0330807 0.0711442 0.996917
0.0361747 0.0777983 0.996313
0.183382 0.394387 0.900461
0.224112 0.481981 0.847035
0.224696 0.483237 0.846164
0.225862 0.485745 0.844416
0.227897 0.490122 0.841334
0.2594 0.557872 0.788346
0.309846 0.666364 0.6782
0.31008 0.666867 0.677598
0.310313 0.667369 0.676996
0.310547 0.667871 0.676394
0.31287 0.672866 0.670346
0.321504 0.691435 0.646956
0.32195 0.692394 0.645708
0.322395 0.693352 0.644457
0.325266 0.699527 0.636289
0.327015 0.703289 0.631226
0.327233 0.703757 0.630591
0.32745 0.704224 0.629956
0.327668 0.704691 0.62932
0.328534 0.706555 0.626774
0.32875 0.70702 0.626136
0.328966 0.707484 0.625498
0.329182 0.707948 0.624859
0.334081 0.718483 0.610059
0.334501 0.719388 0.608761
0.33513 0.72074 0.606812
0.337005 0.724772 0.600943
0.337212 0.725218 0.600289
0.340699 0.732718 0.589108
0.344519 0.740933 0.576477
0.345313 0.742639 0.5738
0.346102 0.744338 0.571117
0.346299 0.744761 0.570445
0.346692 0.745607 0.5691
0.346889 0.746029 0.568427
0.347085 0.74645 0.567754
0.381883 0.821288 0.423854
0.382175 0.821916 0.422371
0.382465 0.822541 0.420887
0.386705 0.83166 0.398499
0.388067 0.834588 0.390982
0.388604 0.835744 0.387968
0.393128 0.845473 0.361421
0.393748 0.846807 0.357604
0.39521 0.849949 0.348419
0.396163 0.851999 0.342276
0.396983 0.853762 0.33689
0.406356 0.873922 0.266713
0.407352 0.876063 0.258029
0.414941 0.892385 0.177407
0.417558 0.898012 0.138633
0.41784 0.898619 0.13377
0.420015 0.903296 0.0874274
0.00241885 0.00519093 0.999984
0.0189989 0.0407723 0.998988
0.0207248 0.0444761 0.998795
0.021415 0.0459574 0.998714
0.0224503 0.048179 0.998586
0.0331389 0.0711171 0.996917
0.0362383 0.0777687 0.996313
0.184637 0.396238 0.899391
0.224506 0.481798 0.847035
0.226843 0.486812 0.843538
0.228298 0.489936 0.841334
0.228589 0.49056 0.840891
0.259584 0.557075 0.788849
0.259856 0.55766 0.788346
0.308037 0.661058 0.684189
0.308273 0.661566 0.683592
0.30851 0.662072 0.682995
0.308746 0.662579 0.682397
0.308981 0.663084 0.681799
0.31342 0.67261 0.670346
0.322069 0.691172 0.646956
0.325839 0.699261 0.636289
0.326058 0.699733 0.635657
0.326278 0.700204 0.635025
0.326497 0.700674 0.634393
0.327372 0.702552 0.63186
0.327591 0.703021 0.631226
0.327809 0.703489 0.630591
0.328026 0.703956 0.629956
0.330408 0.709066 0.622941
0.330623 0.709528 0.622301
0.330838 0.709989 0.621661
0.331052 0.71045 0.62102
0.334457 0.717757 0.610707
0.345125 0.74065 0.576477
0.34592 0.742356 0.5738
0.347302 0.745323 0.5691
0.347499 0.745745 0.568427
0.347695 0.746166 0.567754
0.347891 0.746587 0.56708
0.349257 0.749518 0.562354
0.349451 0.749935 0.561677
0.349645 0.750351 0.561
0.349839 0.750767 0.560323
0.350033 0.751182 0.559645
0.350997 0.753251 0.55625
0.351189 0.753663 0.55557
0.351381 0.754075 0.55489
0.351572 0.754486 0.554209
0.382847 0.821603 0.422371
0.383138 0.822228 0.420887
0.387386 0.831343 0.398499
0.388343 0.833398 0.39324
0.38875 0.83427 0.390982
0.389288 0.835425 0.387968
0.39382 0.845151 0.361421
0.394441 0.846484 0.357604
0.395905 0.849626 0.348419
0.39686 0.851674 0.342276
0.397681 0.853437 0.33689
0.407071 0.873589 0.266713
0.408068 0.875729 0.258029
0.415671 0.892045 0.177407
0.418293 0.89767 0.138633
0.418575 0.898276 0.13377
0.00242309 0.00518895 0.999984
0.0190323 0.0407568 0.998988
0.0207611 0.0444591 0.998795
0.0214526 0.0459398 0.998714
0.0224897 0.0481607 0.998586
0.033197 0.07109 0.996917
0.0363019 0.077739 0.996313
0.184962 0.396087 0.899391
0.186206 0.398752 0.897956
0.2249 0.481614 0.847035
0.226657 0.485375 0.844416
0.226949 0.486001 0.843977
0.227241 0.486626 0.843538
0.228699 0.489749 0.841334
0.22899 0.490372 0.840891
0.259766 0.556278 0.789352
0.260039 0.556863 0.788849
0.306199 0.655712 0.690133
0.306438 0.656224 0.689541
0.306677 0.656735 0.688948
0.306915 0.657245 0.688355
0.307153 0.657755 0.687761
0.31304 0.670362 0.67277
0.313273 0.670861 0.672165
0.313506 0.671359 0.671559
0.313738 0.671856 0.670953
0.31397 0.672354 0.670346
0.326411 0.698994 0.636289
0.326631 0.699466 0.635657
0.329038 0.70462 0.628684
0.329255 0.705086 0.628048
0.329473 0.705552 0.627411
0.32969 0.706016 0.626774
0.329907 0.706481 0.626136
0.330772 0.708334 0.623581
0.330988 0.708796 0.622941
0.331203 0.709257 0.622301
0.331418 0.709718 0.621661
0.336938 0.721538 0.60486
0.337774 0.723328 0.602251
0.337982 0.723774 0.601597
0.345731 0.740368 0.576477
0.346726 0.742498 0.57313
0.370843 0.794144 0.481467
0.383079 0.820347 0.424595
0.383519 0.821289 0.422371
0.383811 0.821914 0.420887
0.388066 0.831026 0.398499
0.389432 0.833952 0.390982
0.389971 0.835107 0.387968
0.394511 0.844829 0.361421
0.395133 0.846161 0.357604
0.3966 0.849301 0.348419
0.397556 0.851349 0.342276
0.398379 0.853112 0.33689
0.407786 0.873255 0.266713
0.408785 0.875395 0.258029
0.416401 0.891705 0.177407
0.419027 0.897328 0.138633
0.41931 0.897934 0.13377
0.421492 0.902608 0.0874274
0.00242734 0.00518697 0.999984
0.0190656 0.0407412 0.998988
0.0207975 0.0444421 0.998795
0.0214902 0.0459223 0.998714
0.0225291 0.0481422 0.998586
0.0332552 0.0710628 0.996917
0.0363655 0.0777093 0.996313
0.180907 0.38658 0.904339
0.181221 0.38725 0.903989
0.181534 0.387919 0.903639
0.185286 0.395936 0.899391
0.185909 0.397268 0.898674
0.225294 0.48143 0.847035
0.225588 0.482057 0.8466
0.227346 0.485815 0.843977
0.227931 0.487065 0.843098
0.2291 0.489562 0.841334
0.229391 0.490185 0.840891
0.255819 0.546659 0.797321
0.256096 0.54725 0.796827
0.259947 0.55548 0.789854
0.260221 0.556065 0.789352
0.304091 0.64981 0.696617
0.304332 0.650326 0.69603
0.304573 0.650841 0.695443
0.304814 0.651357 0.694855
0.305055 0.651871 0.694266
0.305296 0.652385 0.693677
0.31195 0.666605 0.676996
0.312185 0.667107 0.676394
0.31242 0.667608 0.675791
0.312654 0.668108 0.675188
0.324096 0.692558 0.644457
0.324319 0.693035 0.643832
0.326982 0.698727 0.636289
0.327863 0.700609 0.633761
0.328083 0.701079 0.633128
0.328302 0.701547 0.632494
0.328521 0.702016 0.63186
0.329396 0.703885 0.62932
0.329614 0.704351 0.628684
0.329832 0.704817 0.628048
0.33005 0.705282 0.627411
0.330267 0.705746 0.626774
0.331351 0.708063 0.623581
0.331567 0.708525 0.622941
0.331783 0.708986 0.622301
0.331999 0.709447 0.621661
0.332214 0.709907 0.62102
0.337318 0.720814 0.605511
0.346337 0.740085 0.576477
0.346935 0.741364 0.57447
0.347333 0.742214 0.57313
0.34773 0.743063 0.571788
0.371493 0.793841 0.481467
0.383455 0.819403 0.426075
0.383603 0.819719 0.425335
0.384191 0.820975 0.422371
0.384483 0.8216 0.420887
0.388745 0.830708 0.398499
0.390114 0.833633 0.390982
0.390654 0.834787 0.387968
0.395202 0.844506 0.361421
0.395826 0.845838 0.357604
0.397295 0.848977 0.348419
0.398253 0.851024 0.342276
0.399077 0.852785 0.33689
0.4085 0.872922 0.266713
0.409501 0.87506 0.258029
0.416565 0.890156 0.184648
0.41713 0.891364 0.177407
0.419761 0.896985 0.138633
0.420044 0.89759 0.13377
0.422231 0.902263 0.0874274
0.00243158 0.00518498 0.999984
0.0190989 0.0407256 0.998988
0.0208339 0.0444251 0.998795
0.0215277 0.0459047 0.998714
0.0225684 0.0481238 0.998586
0.0277698 0.0592149 0.997859
0.0281164 0.059954 0.997805
0.0333133 0.0710356 0.996917
0.0364291 0.0776795 0.996313
0.180909 0.385762 0.904688
0.184359 0.393117 0.900817
0.184672 0.393784 0.900461
0.185609 0.395784 0.899391
0.186234 0.397116 0.898674
0.188416 0.401769 0.896148
0.188727 0.402433 0.895785
0.189039 0.403096 0.895421
0.18935 0.403759 0.895056
0.18966 0.404422 0.894691
0.189971 0.405085 0.894325
0.225099 0.47999 0.847904
0.228623 0.487503 0.842658
0.2295 0.489374 0.841334
0.256267 0.54645 0.797321
0.260402 0.555267 0.789854
0.301704 0.643338 0.703627
0.301948 0.643859 0.703046
0.302192 0.644379 0.702464
0.302436 0.644899 0.701881
0.30268 0.645419 0.701298
0.302923 0.645938 0.700715
0.310134 0.661313 0.682995
0.310371 0.661819 0.682397
0.310608 0.662324 0.681799
0.310844 0.662829 0.6812
0.311081 0.663333 0.680601
0.318769 0.679726 0.660575
0.322638 0.687978 0.65007
0.323989 0.690859 0.646332
0.324662 0.692293 0.644457
0.327554 0.698459 0.636289
0.328216 0.699871 0.634393
0.328436 0.700341 0.633761
0.328656 0.70081 0.633128
0.328876 0.701279 0.632494
0.33019 0.704081 0.628684
0.330409 0.704547 0.628048
0.330627 0.705012 0.627411
0.330845 0.705476 0.626774
0.331062 0.70594 0.626136
0.339166 0.72322 0.601597
0.339375 0.723665 0.600943
0.341657 0.728532 0.593726
0.341863 0.728972 0.593068
0.342069 0.729411 0.592409
0.342275 0.72985 0.591749
0.34248 0.730288 0.59109
0.343095 0.731599 0.589108
0.346942 0.739801 0.576477
0.347542 0.74108 0.57447
0.34794 0.74193 0.57313
0.348139 0.742354 0.572459
0.348338 0.742778 0.571788
0.348735 0.743624 0.570445
0.348933 0.744046 0.569773
0.349131 0.744468 0.5691
0.351875 0.750321 0.559645
0.35207 0.750735 0.558967
0.352264 0.751149 0.558288
0.352457 0.751562 0.557609
0.372142 0.793536 0.481467
0.384862 0.820661 0.422371
0.385155 0.821285 0.420887
0.389425 0.83039 0.398499
0.389563 0.830684 0.397748
0.390796 0.833314 0.390982
0.391337 0.834467 0.387968
0.395893 0.844182 0.361421
0.396517 0.845514 0.357604
0.397989 0.848651 0.348419
0.398949 0.850698 0.342276
0.399774 0.852459 0.33689
0.409214 0.872587 0.266713
0.410217 0.874725 0.258029
0.417293 0.889815 0.184648
0.417859 0.891022 0.177407
0.420495 0.896641 0.138633
0.420778 0.897246 0.13377
0.422969 0.901917 0.0874274
0.00243582 0.00518299 0.999984
0.0191322 0.04071 0.998988
0.0208702 0.044408 0.998795
0.0215653 0.045887 0.998714
0.0226078 0.0481053 0.998586
0.0281655 0.059931 0.997805
0.0333714 0.0710083 0.996917
0.0364926 0.0776497 0.996313
0.181225 0.385614 0.904688
0.182797 0.38896 0.902937
0.183111 0.389628 0.902585
0.183425 0.390296 0.902233
0.184053 0.391632 0.901526
0.184367 0.392299 0.901172
0.18468 0.392966 0.900817
0.185933 0.395632 0.899391
0.186246 0.396298 0.899033
0.186559 0.396963 0.898674
0.190302 0.404929 0.894325
0.190614 0.405591 0.893959
0.193718 0.412197 0.890262
0.225196 0.479177 0.848337
0.229314 0.48794 0.842217
0.2299 0.489186 0.841334
0.256714 0.54624 0.797321
0.260581 0.554469 0.790356
0.260856 0.555054 0.789854
0.299277 0.636808 0.710569
0.299525 0.637334 0.709993
0.299771 0.637859 0.709417
0.300018 0.638384 0.70884
0.300265 0.638909 0.708263
0.300511 0.639433 0.707685
0.308288 0.65598 0.688948
0.308527 0.65649 0.688355
0.308767 0.656999 0.687761
0.309006 0.657508 0.687167
0.309245 0.658017 0.686572
0.309484 0.658525 0.685977
0.323201 0.687714 0.65007
0.324555 0.690593 0.646332
0.325228 0.692027 0.644457
0.325452 0.692504 0.643832
0.328125 0.698191 0.636289
0.328788 0.699602 0.634393
0.329009 0.700072 0.633761
0.32923 0.700541 0.633128
0.32945 0.701009 0.632494
0.339128 0.721604 0.603556
0.339338 0.722051 0.602903
0.339757 0.722942 0.601597
0.341217 0.726049 0.597013
0.341425 0.72649 0.596356
0.341632 0.726932 0.595699
0.343078 0.730007 0.59109
0.346541 0.737377 0.579815
0.347346 0.73909 0.577145
0.348148 0.740795 0.57447
0.348746 0.742069 0.572459
0.348946 0.742493 0.571788
0.349541 0.743761 0.569773
0.34974 0.744182 0.5691
0.349937 0.744603 0.568427
0.352878 0.75086 0.558288
0.353072 0.751274 0.557609
0.384647 0.818459 0.426815
0.385534 0.820345 0.422371
0.385827 0.82097 0.420887
0.390104 0.830071 0.398499
0.390243 0.830366 0.397748
0.391478 0.832994 0.390982
0.39202 0.834147 0.387968
0.396584 0.843858 0.361421
0.397209 0.845189 0.357604
0.398683 0.848326 0.348419
0.399645 0.850371 0.342276
0.400472 0.852131 0.33689
0.409928 0.872252 0.266713
0.410932 0.874389 0.258029
0.418021 0.889474 0.184648
0.418588 0.89068 0.177407
0.421228 0.896297 0.138633
0.421512 0.896902 0.13377
0.423706 0.90157 0.0874274
0.00244006 0.00518099 0.999984
0.0052286 0.0111019 0.999925
0.0191655 0.0406943 0.998988
0.0216028 0.0458694 0.998714
0.0226472 0.0480868 0.998586
0.0334295 0.070981 0.996917
0.0365561 0.0776198 0.996313
0.18154 0.385465 0.904688
0.181856 0.386135 0.904339
0.182171 0.386804 0.903989
0.182486 0.387473 0.903639
0.182801 0.388141 0.903288
0.183115 0.38881 0.902937
0.18343 0.389478 0.902585
0.18657 0.396145 0.899033
0.186884 0.396811 0.898674
0.187197 0.397476 0.898315
0.194055 0.412038 0.890262
0.225293 0.478365 0.84877
0.229714 0.487752 0.842217
0.2303 0.488998 0.841334
0.256326 0.544258 0.7988
0.256604 0.544849 0.798307
0.257993 0.547798 0.795837
0.258271 0.548387 0.795341
0.260759 0.55367 0.790857
0.261034 0.554255 0.790356
0.296561 0.62969 0.718012
0.296812 0.630221 0.717443
0.297062 0.630752 0.716873
0.297311 0.631282 0.716302
0.297561 0.631812 0.715731
0.29781 0.632342 0.715159
0.29806 0.632871 0.714587
0.306896 0.651634 0.693677
0.307138 0.652147 0.693087
0.307379 0.65266 0.692497
0.307621 0.653172 0.691907
0.31988 0.679203 0.660575
0.323764 0.687449 0.65007
0.324894 0.689849 0.646956
0.326019 0.692237 0.643832
0.328696 0.697922 0.636289
0.343675 0.729726 0.59109
0.347951 0.738806 0.577145
0.349353 0.741784 0.572459
0.349553 0.742207 0.571788
0.349752 0.74263 0.571117
0.35015 0.743474 0.569773
0.350348 0.743896 0.5691
0.350546 0.744317 0.568427
0.350745 0.744737 0.567754
0.352124 0.747667 0.56303
0.35232 0.748083 0.562354
0.385316 0.818144 0.426815
0.386205 0.82003 0.422371
0.386498 0.820654 0.420887
0.390783 0.829751 0.398499
0.390922 0.830046 0.397748
0.392159 0.832673 0.390982
0.392702 0.833826 0.387968
0.397274 0.843533 0.361421
0.3979 0.844864 0.357604
0.399377 0.847999 0.348419
0.40034 0.850044 0.342276
0.401169 0.851803 0.33689
0.410641 0.871916 0.266713
0.411647 0.874052 0.258029
0.418749 0.889131 0.184648
0.421961 0.895952 0.138633
0.422246 0.896557 0.13377
0.424444 0.901224 0.0874274
0.0024443 0.00517899 0.999984
0.00523768 0.0110976 0.999925
0.0191988 0.0406786 0.998988
0.0216403 0.0458517 0.998714
0.0226865 0.0480683 0.998586
0.0334875 0.0709536 0.996917
0.0366196 0.0775898 0.996313
0.185323 0.392664 0.900817
0.185638 0.39333 0.900461
0.187522 0.397322 0.898315
0.187836 0.397987 0.897956
0.188149 0.398651 0.897595
0.190652 0.403955 0.894691
0.191589 0.40594 0.893592
0.191901 0.406601 0.893224
0.225684 0.47818 0.84877
0.229818 0.48694 0.842658
0.241463 0.511613 0.824589
0.241751 0.512223 0.824126
0.242039 0.512833 0.823663
0.242326 0.513442 0.823198
0.256492 0.543457 0.799292
0.258997 0.548764 0.794845
0.260935 0.552872 0.791357
0.261212 0.553457 0.790857
0.292786 0.620356 0.727623
0.29304 0.620894 0.727062
0.293293 0.621432 0.7265
0.293547 0.621969 0.725937
0.2938 0.622506 0.725374
0.294054 0.623042 0.724811
0.294307 0.623578 0.724247
0.294559 0.624114 0.723683
0.294812 0.624649 0.723118
0.304508 0.645193 0.700715
0.304752 0.645711 0.700131
0.304997 0.646229 0.699546
0.305241 0.646746 0.698962
0.305485 0.647263 0.698376
0.305729 0.64778 0.69779
0.31928 0.676492 0.663641
0.320205 0.678452 0.661189
0.320436 0.678941 0.660575
0.324326 0.687184 0.65007
0.325458 0.689583 0.646956
0.325684 0.690061 0.646332
0.326585 0.69197 0.643832
0.329267 0.697653 0.636289
0.337763 0.715655 0.611354
0.344272 0.729445 0.59109
0.348555 0.738521 0.577145
0.349359 0.740225 0.57447
0.34996 0.741498 0.572459
0.35016 0.741921 0.571788
0.350758 0.743188 0.569773
0.350957 0.743609 0.5691
0.351155 0.74403 0.568427
0.386135 0.818144 0.426075
0.386875 0.819713 0.422371
0.38717 0.820337 0.420887
0.391462 0.829431 0.398499
0.391601 0.829726 0.397748
0.39284 0.832352 0.390982
0.393384 0.833504 0.387968
0.397964 0.843208 0.361421
0.398591 0.844538 0.357604
0.400071 0.847672 0.348419
0.401035 0.849716 0.342276
0.401865 0.851475 0.33689
0.411354 0.87158 0.266713
0.412362 0.873715 0.258029
0.422694 0.895606 0.138633
0.422979 0.896211 0.13377
0.425181 0.900876 0.0874274
0.00244854 0.00517699 0.999984
0.0188827 0.039924 0.999024
0.0192321 0.0406629 0.998988
0.0216778 0.045834 0.998714
0.0227258 0.0480497 0.998586
0.0335456 0.0709262 0.996917
0.0366831 0.0775599 0.996313
0.183436 0.387842 0.903288
0.183751 0.38851 0.902937
0.184067 0.389177 0.902585
0.184383 0.389845 0.902233
0.188475 0.398497 0.897595
0.192234 0.406444 0.893224
0.227261 0.480504 0.847035
0.227558 0.48113 0.8466
0.230511 0.487375 0.842217
0.241882 0.511415 0.824589
0.245044 0.518103 0.819465
0.245331 0.518709 0.818996
0.245617 0.519314 0.818526
0.245904 0.51992 0.818056
0.24619 0.520524 0.817585
0.246476 0.521129 0.817113
0.246761 0.521733 0.816642
0.247047 0.522337 0.816169
0.247332 0.52294 0.815696
0.247618 0.523543 0.815223
0.247903 0.524146 0.814748
0.256657 0.542655 0.799783
0.259724 0.54914 0.794348
0.260834 0.551487 0.792356
0.261111 0.552072 0.791857
0.261388 0.552658 0.791357
0.288422 0.609817 0.738198
0.28868 0.610363 0.737646
0.288938 0.610908 0.737093
0.289196 0.611453 0.73654
0.289453 0.611998 0.735986
0.289711 0.612542 0.735432
0.289968 0.613085 0.734878
0.290225 0.613629 0.734323
0.290481 0.614171 0.733767
0.290738 0.614714 0.733211
0.290994 0.615256 0.732654
0.30208 0.638694 0.707685
0.302327 0.639217 0.707107
0.302574 0.63974 0.706528
0.302821 0.640262 0.705949
0.303068 0.640784 0.705369
0.303315 0.641305 0.704789
0.303561 0.641826 0.704208
0.303808 0.642347 0.703627
0.320297 0.677211 0.662416
0.320529 0.677701 0.661803
0.32076 0.67819 0.661189
0.320991 0.678679 0.660575
0.324888 0.686918 0.65007
0.329838 0.697384 0.636289
0.338349 0.715378 0.611354
0.345075 0.7296 0.59043
0.345281 0.730036 0.589769
0.345488 0.730472 0.589108
0.349159 0.738235 0.577145
0.349965 0.739939 0.57447
0.350567 0.741211 0.572459
0.351366 0.742901 0.569773
0.351565 0.743322 0.5691
0.351764 0.743742 0.568427
0.351963 0.744162 0.567754
0.386206 0.816563 0.429034
0.386356 0.81688 0.428295
0.386953 0.818143 0.425335
0.387546 0.819397 0.422371
0.387841 0.82002 0.420887
0.39214 0.829111 0.398499
0.392279 0.829405 0.397748
0.393521 0.83203 0.390982
0.394066 0.833182 0.387968
0.398654 0.842882 0.361421
0.399282 0.844211 0.357604
0.400764 0.847344 0.348419
0.40173 0.849388 0.342276
0.402562 0.851146 0.33689
0.412067 0.871243 0.266713
0.413077 0.873378 0.258029
0.423427 0.89526 0.138633
0.423712 0.895865 0.13377
0.00245277 0.00517499 0.999984
0.0192654 0.0406471 0.998988
0.0217153 0.0458162 0.998714
0.0227651 0.0480311 0.998586
0.0283614 0.0598385 0.997805
0.0336036 0.0708987 0.996917
0.0367465 0.0775298 0.996313
0.182169 0.384349 0.905036
0.18312 0.386356 0.903989
0.186596 0.393691 0.900105
0.186912 0.394356 0.899748
0.187857 0.396351 0.898674
0.191627 0.404304 0.894325
0.192566 0.406286 0.893224
0.226169 0.477183 0.849202
0.227654 0.480318 0.847035
0.230615 0.486564 0.842658
0.2423 0.511217 0.824589
0.252878 0.533535 0.807089
0.25316 0.534132 0.806606
0.253443 0.534728 0.806122
0.253725 0.535324 0.805638
0.254008 0.535919 0.805153
0.25429 0.536514 0.804667
0.254572 0.537109 0.804181
0.254853 0.537703 0.803695
0.255135 0.538297 0.803208
0.255416 0.538891 0.80272
0.255697 0.539484 0.802232
0.255978 0.540077 0.801743
0.256259 0.54067 0.801254
0.25682 0.541854 0.800274
0.260173 0.548927 0.794348
0.260451 0.549514 0.793851
0.261007 0.550687 0.792855
0.261285 0.551273 0.792356
0.261562 0.551859 0.791857
0.281339 0.593584 0.753993
0.281603 0.594141 0.753456
0.281867 0.594698 0.752918
0.282131 0.595255 0.752379
0.282394 0.595811 0.75184
0.282658 0.596366 0.7513
0.282921 0.596922 0.75076
0.283184 0.597476 0.750219
0.283446 0.598031 0.749678
0.283709 0.598585 0.749136
0.283971 0.599138 0.748594
0.284234 0.599692 0.748052
0.284496 0.600245 0.747508
0.284758 0.600797 0.746965
0.285019 0.601349 0.74642
0.285281 0.601901 0.745876
0.285542 0.602452 0.745331
0.285803 0.603003 0.744785
0.299612 0.632138 0.714587
0.299862 0.632666 0.714015
0.300112 0.633193 0.713442
0.300362 0.633721 0.712868
0.300612 0.634247 0.712294
0.300861 0.634774 0.71172
0.301111 0.6353 0.711145
0.30136 0.635825 0.710569
0.301609 0.63635 0.709993
0.31711 0.669056 0.672165
0.317345 0.669552 0.671559
0.317581 0.670049 0.670953
0.317816 0.670545 0.670346
0.321315 0.677928 0.661189
0.321546 0.678416 0.660575
0.32545 0.686652 0.65007
0.330408 0.697113 0.636289
0.338934 0.715101 0.611354
0.348952 0.736239 0.579815
0.349763 0.737949 0.577145
0.35057 0.739652 0.57447
0.351173 0.740924 0.572459
0.351373 0.741347 0.571788
0.351574 0.741769 0.571117
0.385663 0.813692 0.434936
0.385815 0.814013 0.4342
0.385967 0.814334 0.433462
0.386723 0.815929 0.429773
0.387323 0.817196 0.426815
0.388216 0.819079 0.422371
0.388511 0.819703 0.420887
0.392818 0.82879 0.398499
0.392958 0.829084 0.397748
0.394202 0.831708 0.390982
0.394747 0.83286 0.387968
0.399343 0.842556 0.361421
0.399973 0.843885 0.357604
0.401457 0.847016 0.348419
0.402425 0.849059 0.342276
0.403258 0.850816 0.33689
0.41278 0.870906 0.266713
0.413791 0.873039 0.258029
0.424159 0.894914 0.138633
0.002457 0.00517298 0.999984
0.0129851 0.0273389 0.999542
0.0147392 0.0310319 0.99941
0.01509 0.0317705 0.999381
0.0154408 0.032509 0.999352
0.016493 0.0347245 0.999261
0.0168438 0.0354629 0.999229
0.0171945 0.0362014 0.999197
0.018948 0.0398931 0.999024
0.0192986 0.0406314 0.998988
0.0217528 0.0457984 0.998714
0.0228044 0.0480124 0.998586
0.0284104 0.0598153 0.997805
0.0336616 0.0708712 0.996917
0.0368099 0.0774997 0.996313
0.182165 0.383531 0.905384
0.183436 0.386206 0.903989
0.184387 0.388209 0.902937
0.184704 0.388876 0.902585
0.185021 0.389543 0.902233
0.185337 0.390209 0.90188
0.187234 0.394203 0.899748
0.188181 0.396197 0.898674
0.192271 0.404808 0.893959
0.192585 0.405469 0.893592
0.226559 0.476998 0.849202
0.22775 0.479505 0.84747
0.231604 0.48762 0.841776
0.243007 0.511628 0.824126
0.263124 0.553982 0.789854
0.263401 0.554566 0.789352
0.263678 0.555149 0.788849
0.263955 0.555732 0.788346
0.264232 0.556314 0.787843
0.264508 0.556896 0.787339
0.264784 0.557478 0.786834
0.26506 0.558059 0.786329
0.265336 0.55864 0.785823
0.265612 0.55922 0.785317
0.265888 0.559801 0.78481
0.266163 0.56038 0.784303
0.266438 0.56096 0.783795
0.266713 0.561539 0.783287
0.266988 0.562118 0.782778
0.267263 0.562696 0.782269
0.267537 0.563274 0.781759
0.267812 0.563851 0.781248
0.268086 0.564428 0.780737
0.26836 0.565005 0.780226
0.268633 0.565582 0.779714
0.268907 0.566158 0.779201
0.26918 0.566733 0.778688
0.269454 0.567308 0.778175
0.269727 0.567883 0.777661
0.27 0.568458 0.777146
0.270272 0.569032 0.776631
0.270545 0.569606 0.776115
0.270817 0.570179 0.775599
0.271089 0.570752 0.775082
0.271361 0.571325 0.774565
0.271633 0.571897 0.774047
0.271905 0.572469 0.773529
0.272176 0.57304 0.77301
0.272447 0.573611 0.772491
0.272718 0.574182 0.771971
0.272989 0.574752 0.771451
0.27326 0.575322 0.77093
0.27353 0.575892 0.770409
0.273801 0.576461 0.769887
0.274071 0.57703 0.769365
0.274341 0.577598 0.768842
0.274611 0.578166 0.768318
0.27488 0.578733 0.767795
0.27515 0.579301 0.76727
0.275419 0.579867 0.766745
0.275688 0.580434 0.76622
0.275957 0.581 0.765694
0.276225 0.581566 0.765167
0.276494 0.582131 0.76464
0.276762 0.582696 0.764113
0.27703 0.58326 0.763585
0.277298 0.583824 0.763056
0.297105 0.625525 0.72142
0.297358 0.626058 0.720854
0.297611 0.62659 0.720286
0.297863 0.627122 0.719719
0.298116 0.627654 0.71915
0.298368 0.628185 0.718582
0.315049 0.663305 0.678801
0.315287 0.663806 0.6782
0.315525 0.664307 0.677598
0.315763 0.664808 0.676996
0.318364 0.670284 0.670346
0.326012 0.686386 0.65007
0.330978 0.696843 0.636289
0.339519 0.714824 0.611354
0.349555 0.735953 0.579815
0.352781 0.742745 0.5691
0.35298 0.743166 0.568427
0.35318 0.743586 0.567754
0.353379 0.744005 0.56708
0.354371 0.746094 0.563706
0.354569 0.74651 0.56303
0.386328 0.813376 0.434936
0.386633 0.814018 0.433462
0.386785 0.814338 0.432725
0.38739 0.815613 0.429773
0.388291 0.817509 0.425335
0.38844 0.817823 0.424595
0.388886 0.818761 0.422371
0.389182 0.819385 0.420887
0.393496 0.828468 0.398499
0.393636 0.828762 0.397748
0.394882 0.831385 0.390982
0.395429 0.832536 0.387968
0.400032 0.842229 0.361421
0.400663 0.843557 0.357604
0.40215 0.846688 0.348419
0.40312 0.848729 0.342276
0.403954 0.850486 0.33689
0.413492 0.870568 0.266713
0.414505 0.872701 0.258029
0.424891 0.894566 0.138633
0.425178 0.89517 0.13377
0.00246123 0.00517097 0.999984
0.00492239 0.0103418 0.999934
0.0123046 0.0258514 0.99959
0.012656 0.0265899 0.999566
0.0147646 0.0310199 0.99941
0.0175754 0.0369254 0.999163
0.0179267 0.0376635 0.99913
0.0193319 0.0406155 0.998988
0.0217903 0.0457806 0.998714
0.0228437 0.0479938 0.998586
0.0284593 0.059792 0.997805
0.0368733 0.0774696 0.996313
0.182479 0.383382 0.905384
0.187557 0.39405 0.899748
0.226949 0.476812 0.849202
0.231114 0.485563 0.843098
0.231707 0.486808 0.842217
0.232003 0.48743 0.841776
0.242265 0.508991 0.825975
0.244294 0.513254 0.822734
0.244584 0.513862 0.822268
0.244873 0.514469 0.821802
0.245162 0.515076 0.821336
0.24545 0.515682 0.820869
0.245739 0.516289 0.820401
0.246027 0.516894 0.819933
0.246315 0.5175 0.819465
0.292504 0.61454 0.732654
0.292761 0.615081 0.732097
0.293018 0.615622 0.73154
0.293276 0.616162 0.730982
0.293532 0.616702 0.730423
0.293789 0.617241 0.729864
0.294046 0.61778 0.729305
0.294302 0.618318 0.728745
0.294558 0.618857 0.728184
0.294814 0.619394 0.727623
0.29507 0.619932 0.727062
0.314156 0.66003 0.682397
0.315353 0.662545 0.679401
0.315592 0.663047 0.678801
0.31583 0.663548 0.6782
0.316069 0.664049 0.677598
0.316307 0.664549 0.676996
0.316545 0.665049 0.676394
0.316782 0.665549 0.675791
0.31702 0.666048 0.675188
0.326573 0.686119 0.65007
0.331548 0.696572 0.636289
0.340103 0.714546 0.611354
0.350157 0.735667 0.579815
0.35036 0.736095 0.579148
0.350564 0.736522 0.578481
0.351982 0.739502 0.5738
0.354982 0.745804 0.563706
0.359477 0.755249 0.548065
0.386993 0.81306 0.434936
0.387146 0.813381 0.4342
0.387299 0.813701 0.433462
0.387451 0.814021 0.432725
0.388058 0.815296 0.429773
0.389556 0.818443 0.422371
0.389852 0.819066 0.420887
0.394174 0.828146 0.398499
0.394314 0.82844 0.397748
0.39501 0.829902 0.393992
0.395562 0.831062 0.390982
0.39611 0.832213 0.387968
0.400721 0.841901 0.361421
0.401353 0.843229 0.357604
0.402843 0.846358 0.348419
0.403814 0.848399 0.342276
0.40465 0.850155 0.33689
0.414204 0.870229 0.266713
0.415219 0.872361 0.258029
0.422382 0.887411 0.184648
0.425623 0.894218 0.138633
0.42591 0.894822 0.13377
0.00246546 0.00516895 0.999984
0.00493085 0.0103377 0.999934
0.00633957 0.0132912 0.999892
0.00669174 0.0140295 0.999879
0.00704391 0.0147679 0.999866
0.00880466 0.0184594 0.999791
0.0123257 0.0258414 0.99959
0.0130298 0.0273176 0.999542
0.0154939 0.0324837 0.999352
0.0158459 0.0332217 0.999322
0.0161979 0.0339596 0.999292
0.0165498 0.0346975 0.999261
0.0193651 0.0405997 0.998988
0.0218277 0.0457628 0.998714
0.0228829 0.0479751 0.998586
0.0285082 0.0597687 0.997805
0.0369367 0.0774394 0.996313
0.183111 0.383901 0.905036
0.183749 0.385237 0.904339
0.189778 0.397878 0.897595
0.22704 0.475999 0.849634
0.228236 0.478506 0.847904
0.231511 0.485374 0.843098
0.232994 0.488483 0.840891
0.23329 0.489103 0.840448
0.233586 0.489724 0.840005
0.2421 0.507572 0.826897
0.249903 0.523934 0.814274
0.25019 0.524535 0.813799
0.250477 0.525135 0.813323
0.250763 0.525736 0.812847
0.251049 0.526336 0.81237
0.251335 0.526936 0.811893
0.251621 0.527535 0.811415
0.251907 0.528134 0.810936
0.252192 0.528733 0.810457
0.252478 0.529331 0.809978
0.252763 0.529929 0.809498
0.253048 0.530526 0.809017
0.253333 0.531124 0.808536
0.253618 0.53172 0.808054
0.262079 0.549459 0.793353
0.288591 0.605044 0.742049
0.288853 0.605592 0.7415
0.289114 0.606139 0.740951
0.289374 0.606686 0.740401
0.289635 0.607233 0.739851
0.289896 0.607779 0.739301
0.290156 0.608325 0.738749
0.290416 0.60887 0.738198
0.290676 0.609415 0.737646
0.327134 0.685851 0.65007
0.332118 0.6963 0.636289
0.340688 0.714267 0.611354
0.350758 0.73538 0.579815
0.350962 0.735808 0.579148
0.351166 0.736235 0.578481
0.35137 0.736662 0.577813
0.351776 0.737515 0.576477
0.351979 0.73794 0.575808
0.352182 0.738365 0.575139
0.352384 0.738789 0.57447
0.352587 0.739213 0.5738
0.359902 0.75455 0.548749
0.387964 0.813384 0.433462
0.388117 0.813704 0.432725
0.388269 0.814023 0.431987
0.388421 0.814342 0.431249
0.388724 0.814978 0.429773
0.390225 0.818124 0.422371
0.390522 0.818747 0.420887
0.396242 0.830738 0.390982
0.39679 0.831888 0.387968
0.40141 0.841573 0.361421
0.402043 0.8429 0.357604
0.403535 0.846028 0.348419
0.405345 0.849824 0.33689
0.414916 0.86989 0.266713
0.415933 0.872021 0.258029
0.423108 0.887065 0.184648
0.426354 0.89387 0.138633
0.426642 0.894473 0.13377
0.00246969 0.00516693 0.999984
0.0028225 0.00590506 0.999979
0.00317531 0.00664318 0.999973
0.00352811 0.00738129 0.999967
0.00388091 0.0081194 0.99996
0.00635044 0.013286 0.999892
0.00670322 0.014024 0.999879
0.00705599 0.0147621 0.999866
0.00881976 0.0184521 0.999791
0.0123468 0.0258313 0.99959
0.0126995 0.0265691 0.999566
0.0130522 0.0273069 0.999542
0.0134048 0.0280447 0.999517
0.0137575 0.0287825 0.999491
0.0141101 0.0295202 0.999465
0.0193983 0.0405839 0.998988
0.0218652 0.0457449 0.998714
0.0229222 0.0479563 0.998586
0.0285571 0.0597454 0.997805
0.0338354 0.0707884 0.996917
0.037 0.0774091 0.996313
0.189153 0.395734 0.898674
0.190104 0.397723 0.897595
0.227429 0.475813 0.849634
0.228328 0.477693 0.848337
0.229822 0.48082 0.846164
0.231908 0.485184 0.843098
0.232503 0.486428 0.842217
0.241931 0.506153 0.827816
0.257461 0.538644 0.802232
0.257744 0.539236 0.801743
0.258027 0.539828 0.801254
0.25831 0.540419 0.800764
0.262528 0.549245 0.793353
0.283014 0.592104 0.754531
0.28328 0.59266 0.753993
0.283546 0.593217 0.753456
0.283812 0.593773 0.752918
0.284077 0.594328 0.752379
0.284342 0.594883 0.75184
0.284608 0.595438 0.7513
0.284873 0.595993 0.75076
0.285137 0.596546 0.750219
0.285402 0.5971 0.749678
0.327695 0.685584 0.65007
0.332688 0.696028 0.636289
0.341272 0.713988 0.611354
0.348681 0.729488 0.588447
0.35136 0.735093 0.579815
0.353596 0.739771 0.572459
0.360131 0.753444 0.550116
0.38817 0.812104 0.435673
0.389087 0.814024 0.431249
0.389239 0.814342 0.430511
0.389391 0.81466 0.429773
0.390894 0.817805 0.422371
0.391192 0.818427 0.420887
0.396921 0.830413 0.390982
0.397471 0.831563 0.387968
0.402098 0.841244 0.361421
0.402732 0.842571 0.357604
0.404227 0.845698 0.348419
0.405202 0.847737 0.342276
0.40604 0.849492 0.33689
0.415628 0.86955 0.266713
0.416646 0.871681 0.258029
0.423834 0.886719 0.184648
0.427085 0.893521 0.138633
0.427373 0.894124 0.13377
0.00247392 0.00516491 0.999984
0.00282733 0.00590275 0.999979
0.00318074 0.00664058 0.999973
0.00494776 0.0103297 0.999934
0.00636131 0.0132808 0.999892
0.00671469 0.0140186 0.999879
0.00706806 0.0147563 0.999866
0.00742143 0.0154941 0.999852
0.00883486 0.0184449 0.999791
0.013781 0.0287712 0.999491
0.0141342 0.0295087 0.999465
0.0194315 0.040568 0.998988
0.0219026 0.045727 0.998714
0.0229614 0.0479376 0.998586
0.028606 0.059722 0.997805
0.0370634 0.0773789 0.996313
0.189159 0.394916 0.899033
0.189477 0.395579 0.898674
0.227518 0.475 0.850065
0.228719 0.477506 0.848337
0.231112 0.482503 0.844854
0.233496 0.48748 0.841334
0.238233 0.49737 0.834187
0.24176 0.504732 0.828732
0.262977 0.54903 0.793353
0.27405 0.572146 0.77301
0.274323 0.572717 0.772491
0.274596 0.573286 0.771971
0.281895 0.588524 0.757743
0.328256 0.685315 0.65007
0.333257 0.695756 0.636289
0.341856 0.713709 0.611354
0.349277 0.729202 0.588447
0.351961 0.734805 0.579815
0.354605 0.740325 0.571117
0.354807 0.740746 0.570445
0.359968 0.751521 0.552846
0.360163 0.751929 0.552164
0.388834 0.811786 0.435673
0.389753 0.813705 0.431249
0.389905 0.814023 0.430511
0.390057 0.814341 0.429773
0.391563 0.817484 0.422371
0.391861 0.818107 0.420887
0.3976 0.830088 0.390982
0.398151 0.831238 0.387968
0.402786 0.840915 0.361421
0.403421 0.842241 0.357604
0.404919 0.845367 0.348419
0.406735 0.849159 0.33689
0.416339 0.86921 0.266713
0.417359 0.87134 0.258029
0.424559 0.886372 0.184648
0.427816 0.893171 0.138633
0.00601819 0.0125381 0.999903
0.00672615 0.0140131 0.999879
0.0194647 0.0405521 0.998988
0.02194 0.0457091 0.998714
0.0230006 0.0479188 0.998586
0.0286548 0.0596986 0.997805
0.0339512 0.0707329 0.996917
0.0371266 0.0773485 0.996313
0.227907 0.474814 0.850065
0.228809 0.476693 0.84877
0.231507 0.482314 0.844854
0.233895 0.487289 0.841334
0.23864 0.497175 0.834187
0.241585 0.503311 0.829647
0.241879 0.503923 0.82919
0.328817 0.685046 0.65007
0.333826 0.695483 0.636289
0.34244 0.713429 0.611354
0.349874 0.728916 0.588447
0.352562 0.734517 0.579815
0.355211 0.740035 0.571117
0.355413 0.740456 0.570445
0.355816 0.741296 0.5691
0.356017 0.741716 0.568427
0.356219 0.742135 0.567754
0.356419 0.742553 0.56708
0.359207 0.74836 0.557609
0.359404 0.748771 0.55693
0.359601 0.749181 0.55625
0.359798 0.749591 0.55557
0.359994 0.750001 0.55489
0.360583 0.751226 0.552846
0.360778 0.751634 0.552164
0.360974 0.752041 0.551482
0.361169 0.752447 0.550799
0.361364 0.752853 0.550116
0.361558 0.753259 0.549433
0.388099 0.808554 0.442289
0.388256 0.80888 0.441555
0.390419 0.813386 0.431249
0.390571 0.813704 0.430511
0.390724 0.814021 0.429773
0.392232 0.817164 0.422371
0.39253 0.817786 0.420887
0.398279 0.829763 0.390982
0.398831 0.830912 0.387968
0.403474 0.840585 0.361421
0.40411 0.841911 0.357604
0.40561 0.845035 0.348419
0.40743 0.848826 0.33689
0.41705 0.868869 0.266713
0.418072 0.870998 0.258029
0.425284 0.886024 0.184648
0.428547 0.892821 0.138633
0.428836 0.893423 0.13377
0.00496465 0.0103215 0.999934
0.00531925 0.0110588 0.999925
0.00567385 0.011796 0.999914
0.00602844 0.0125332 0.999903
0.00638303 0.0132704 0.999892
0.0194978 0.0405361 0.998988
0.0219774 0.0456911 0.998714
0.0230398 0.0478999 0.998586
0.0287037 0.0596751 0.997805
0.227993 0.474 0.850496
0.229199 0.476506 0.84877
0.231901 0.482125 0.844854
0.232201 0.482747 0.844416
0.233397 0.485235 0.842658
0.234293 0.487097 0.841334
0.239047 0.49698 0.834187
0.241408 0.501889 0.830559
0.241703 0.502502 0.830104
0.259919 0.540374 0.800274
0.263594 0.548013 0.793851
0.329377 0.684777 0.65007
0.334395 0.69521 0.636289
0.343024 0.713148 0.611354
0.35047 0.72863 0.588447
0.353163 0.734228 0.579815
0.356624 0.741424 0.568427
0.356826 0.741843 0.567754
0.357027 0.742261 0.56708
0.357228 0.742679 0.566406
0.357429 0.743096 0.565732
0.359621 0.747654 0.558288
0.359819 0.748066 0.557609
0.360016 0.748477 0.55693
0.360214 0.748887 0.55625
0.360411 0.749297 0.55557
0.360608 0.749706 0.55489
0.388761 0.808236 0.442289
0.388917 0.808562 0.441555
0.3929 0.816843 0.422371
0.393199 0.817464 0.420887
0.398958 0.829437 0.390982
0.404162 0.840255 0.361421
0.404799 0.84158 0.357604
0.406301 0.844703 0.348419
0.408124 0.848493 0.33689
0.417761 0.868528 0.266713
0.418784 0.870655 0.258029
0.426009 0.885676 0.184648
0.429277 0.89247 0.138633
0.429567 0.893072 0.13377
0.00497309 0.0103175 0.999934
0.019531 0.0405202 0.998988
0.0220147 0.0456731 0.998714
0.023079 0.0478811 0.998586
0.0287525 0.0596516 0.997805
0.228381 0.473813 0.850496
0.229287 0.475692 0.849202
0.233794 0.485044 0.842658
0.234094 0.485665 0.842217
0.234393 0.486285 0.841776
0.234692 0.486906 0.841334
0.241228 0.500467 0.83147
0.241524 0.50108 0.831015
0.260361 0.540161 0.800274
0.329937 0.684508 0.65007
0.334964 0.694936 0.636289
0.343607 0.712868 0.611354
0.351066 0.728343 0.588447
0.353763 0.733939 0.579815
0.393569 0.816521 0.422371
0.393868 0.817142 0.420887
0.399637 0.82911 0.390982
0.404849 0.839924 0.361421
0.405487 0.841249 0.357604
0.406992 0.844371 0.348419
0.407974 0.846407 0.342276
0.408818 0.848159 0.33689
0.418471 0.868186 0.266713
0.419496 0.870313 0.258029
0.430007 0.892118 0.138633
0.430297 0.892721 0.13377
0.00498153 0.0103134 0.999934
0.0195641 0.0405042 0.998988
0.0220521 0.0456551 0.998714
0.0231182 0.0478622 0.998586
0.0288013 0.0596281 0.997805
0.228466 0.473 0.850926
0.229676 0.475505 0.849202
0.232991 0.482367 0.844416
0.234191 0.484853 0.842658
0.234491 0.485473 0.842217
0.234791 0.486093 0.841776
0.23509 0.486713 0.841334
0.23986 0.496588 0.834187
0.241046 0.499044 0.832378
0.241342 0.499657 0.831924
0.260803 0.539948 0.800274
0.264208 0.546996 0.794348
0.330497 0.684237 0.65007
0.335532 0.694662 0.636289
0.34419 0.712586 0.611354
0.351662 0.728055 0.588447
0.354364 0.733649 0.579815
0.394236 0.816199 0.422371
0.394536 0.81682 0.420887
0.400315 0.828783 0.390982
0.405536 0.839592 0.361421
0.406176 0.840917 0.357604
0.407683 0.844037 0.348419
0.409512 0.847824 0.33689
0.419181 0.867843 0.266713
0.420208 0.869969 0.258029
0.430737 0.891766 0.138633
0.431027 0.892368 0.13377
0.00498997 0.0103093 0.999934
0.0195973 0.0404882 0.998988
0.0220894 0.045637 0.998714
0.0231573 0.0478432 0.998586
0.02885 0.0596045 0.997805
0.228853 0.472813 0.850926
0.229762 0.474691 0.849634
0.233385 0.482176 0.844416
0.234588 0.484661 0.842658
0.234888 0.485281 0.842217
0.235188 0.485901 0.841776
0.240266 0.496392 0.834187
0.24086 0.49762 0.833283
0.241157 0.498233 0.832831
0.264938 0.547365 0.793851
0.331057 0.683967 0.65007
0.3361 0.694387 0.636289
0.344773 0.712304 0.611354
0.352257 0.727767 0.588447
0.354964 0.733359 0.579815
0.394904 0.815876 0.422371
0.395205 0.816497 0.420887
0.400993 0.828455 0.390982
0.406223 0.83926 0.361421
0.406863 0.840584 0.357604
0.408373 0.843704 0.348419
0.410205 0.847489 0.33689
0.419891 0.8675 0.266713
0.42092 0.869625 0.258029
0.431466 0.891413 0.138633
0.431757 0.892015 0.13377
0.0049984 0.0103052 0.999934
0.0196304 0.0404721 0.998988
0.0221268 0.0456189 0.998714
0.0231964 0.0478243 0.998586
0.0288988 0.0595809 0.997805
0.228936 0.471999 0.851355
0.23015 0.474503 0.849634
0.233779 0.481985 0.844416
0.234081 0.482606 0.843977
0.235285 0.485089 0.842217
0.235586 0.485709 0.841776
