ply
format ascii 1.0
element vertex 148
property float x
property float y
property float z
end_header
-0.818471 -2.37805 0.159173
-0.815503 -2.34729 0.158064
-0.819982 -2.33509 0.156824
-0.817104 -2.30421 0.156591
-0.824817 -2.30136 0.157029
-0.780722 -2.46454 0.168092
-0.801752 -2.35195 0.163324
-0.818818 -2.37771 0.16451
-0.816252 -2.34678 0.163779
-0.8309 -2.36271 0.165461
-0.821663 -2.31291 0.163477
-0.829813 -2.3099 0.163918
-0.776745 -2.47604 0.175356
-0.782348 -2.46367 0.175862
-0.812854 -2.37955 0.170729
-0.813293 -2.35818 0.170344
-0.827522 -2.37432 0.171189
-0.824844 -2.34341 0.170379
-0.836515 -2.34971 0.172571
-0.847867 -2.35622 0.172119
-0.774035 -2.46621 0.179503
-0.782707 -2.46332 0.180888
-0.80987 -2.36975 0.17607
-0.827012 -2.39549 0.17695
-0.824485 -2.36455 0.176085
-0.828995 -2.35228 0.176094
-0.829989 -2.33061 0.176092
-0.844711 -2.34642 0.178312
-0.772576 -2.45583 0.186347
-0.787463 -2.47197 0.187755
-0.800607 -2.36207 0.182682
-0.81433 -2.37843 0.183625
-0.818528 -2.36634 0.183165
-0.826046 -2.36367 0.18273
-0.823304 -2.33275 0.182214
-0.820806 -2.30179 0.180379
-0.828497 -2.29888 0.181682
-0.773339 -2.45526 0.192718
-0.787785 -2.47151 0.194633
-0.819522 -2.4608 0.195596
-0.814496 -2.39915 0.192171
-0.81838 -2.38725 0.190788
-0.822192 -2.37532 0.189858
-0.82 -2.34428 0.188389
-0.817212 -2.31345 0.186484
-0.818459 -2.29165 0.186802
-0.833092 -2.30754 0.187798
-0.779849 -2.47384 0.199663
-0.782326 -2.45201 0.198648
-0.814831 -2.39877 0.197099
-0.818697 -2.38682 0.19659
-0.822508 -2.3749 0.195636
-0.823687 -2.35323 0.195055
-0.81752 -2.31303 0.192127
-0.818786 -2.2913 0.191107
-0.836473 -2.31666 0.193524
-0.773982 -2.45436 0.205458
-0.808962 -2.37931 0.202289
-0.815668 -2.37693 0.20274
-0.81651 -2.35546 0.201222
-0.824835 -2.35252 0.200347
-0.821638 -2.32182 0.198741
-0.818672 -2.291 0.197134
-0.833713 -2.30674 0.198216
-0.774729 -2.45375 0.211827
-0.798943 -2.35072 0.206813
-0.809346 -2.35772 0.206064
-0.823536 -2.37385 0.207636
-0.824299 -2.35236 0.20652
-0.825337 -2.33071 0.20584
-0.823199 -2.29957 0.204587
-0.847919 -2.34371 0.206539
-0.778567 -2.46261 0.218784
-0.806681 -2.36881 0.213699
-0.806715 -2.34766 0.212091
-0.820888 -2.36381 0.213272
-0.8254 -2.35153 0.213574
-0.819593 -2.31115 0.211222
-0.830383 -2.31783 0.211817
-0.845117 -2.33366 0.213003
-0.778882 -2.46213 0.22472
-0.813196 -2.3874 0.219336
-0.817004 -2.37542 0.219626
-0.821184 -2.36334 0.219025
-0.821513 -2.34206 0.216935
-0.822903 -2.32024 0.217039
-0.830289 -2.31758 0.216173
-0.834973 -2.30518 0.216006
-0.779202 -2.46167 0.230196
-0.790569 -2.46841 0.231301
-0.816787 -2.39631 0.226209
-0.810652 -2.35617 0.223256
-0.818124 -2.35348 0.223705
-0.826416 -2.35047 0.224154
-0.82663 -2.32918 0.222459
-0.834417 -2.32627 0.223339
-0.804188 -2.45287 0.237536
-0.813784 -2.38642 0.23093
-0.807606 -2.34628 0.228335
-0.811693 -2.33423 0.227691
-0.822892 -2.34074 0.229228
-0.827292 -2.32846 0.229454
-0.838554 -2.33495 0.230119
-0.780245 -2.46051 0.242062
-0.788923 -2.45765 0.242076
-0.814062 -2.38589 0.237172
-0.811212 -2.35515 0.235155
-0.815327 -2.34309 0.234486
-0.826577 -2.34965 0.23517
-0.830592 -2.3375 0.235378
-0.838818 -2.33442 0.236262
-0.819915 -2.44667 0.248962
-0.827263 -2.44416 0.248515
-0.811446 -2.37578 0.242714
-0.815266 -2.36395 0.240696
-0.829087 -2.3802 0.242091
-0.826864 -2.34915 0.240456
-0.831713 -2.33674 0.240206
-0.836052 -2.32441 0.240825
-0.7895 -2.45655 0.254393
-0.81328 -2.44846 0.25534
-0.814098 -2.42706 0.254342
-0.820983 -2.42477 0.252994
-0.815023 -2.38462 0.249653
-0.809245 -2.34438 0.246327
-0.813343 -2.33239 0.244739
-0.831343 -2.35764 0.247786
-0.838819 -2.35488 0.248235
-0.850187 -2.36136 0.248522
-0.781195 -2.42721 0.259432
-0.792084 -2.43413 0.259744
-0.803434 -2.44078 0.260961
-0.803864 -2.41957 0.259464
-0.80504 -2.39811 0.257519
-0.808934 -2.38616 0.257221
-0.819419 -2.39309 0.257536
-0.823276 -2.38121 0.255901
-0.820721 -2.35035 0.253663
-0.825219 -2.3382 0.252045
-0.839916 -2.35403 0.253983
-0.840852 -2.33235 0.253374
-0.791347 -2.45492 0.267164
-0.792781 -2.43338 0.26608
-0.810554 -2.45895 0.26842
-0.804981 -2.41867 0.265775
-0.802473 -2.38798 0.26256
-0.812515 -2.39507 0.262896
-0.82394 -2.38043 0.262584
