ply
format ascii 1.0
element vertex 1588
property float x
property float y
property float z
end_header
-0.878582 -2.32268 0.182276
-0.88231 -2.3105 0.181811
-0.878079 -2.25853 0.178187
-0.900555 -2.2925 0.181347
-0.90408 -2.28032 0.180445
-0.896538 -2.2402 0.179434
-0.907854 -2.2463 0.18076
-0.882886 -2.33133 0.190243
-0.893539 -2.33794 0.189858
-0.885862 -2.29805 0.187447
-0.871337 -2.23934 0.184493
-0.878457 -2.23651 0.184068
-0.893856 -2.25175 0.186337
-0.912407 -2.27658 0.186957
-0.908553 -2.24574 0.185907
-0.904096 -2.21507 0.185694
-0.907256 -2.20293 0.18477
-0.933427 -2.2461 0.186826
-0.940164 -2.24322 0.186823
-0.883618 -2.33078 0.195094
-0.904785 -2.3654 0.197164
-0.882494 -2.28836 0.192163
-0.871636 -2.23894 0.189597
-0.886607 -2.25443 0.191053
-0.905071 -2.2793 0.192165
-0.901305 -2.24842 0.191482
-0.916495 -2.26376 0.192515
-0.911805 -2.21152 0.191198
-0.937634 -2.25488 0.192509
-0.93258 -2.22445 0.190956
-0.851743 -2.2678 0.197904
-0.890757 -2.34914 0.201461
-0.894556 -2.33691 0.201369
-0.871915 -2.23849 0.195551
-0.893968 -2.27268 0.197703
-0.89445 -2.25093 0.196627
-0.901996 -2.24785 0.196627
-0.913343 -2.25391 0.198025
-0.856018 -2.27649 0.204474
-0.891441 -2.34845 0.208572
-0.875887 -2.24728 0.202493
-0.890907 -2.26279 0.203191
-0.902261 -2.26896 0.203754
-0.902277 -2.2474 0.2022
-0.917463 -2.2627 0.203752
-0.905733 -2.21348 0.201363
-0.912382 -2.2107 0.200937
-0.942111 -2.26316 0.204309
-0.945336 -2.25087 0.204607
-0.863508 -2.29468 0.210815
-0.892137 -2.34779 0.214792
-0.869822 -2.24938 0.207615
-0.876957 -2.24651 0.208042
-0.90278 -2.28986 0.211847
-0.899548 -2.25888 0.209647
-0.910916 -2.26498 0.210667
-0.921962 -2.27126 0.210388
-0.923611 -2.21649 0.206174
-0.934187 -2.22276 0.207606
-0.867 -2.30373 0.216195
-0.892049 -2.34757 0.21879
-0.895024 -2.33569 0.218187
-0.887696 -2.29559 0.216637
-0.880564 -2.25551 0.213344
-0.89519 -2.27109 0.21542
-0.929194 -2.33266 0.22013
-0.90319 -2.24623 0.214629
-0.860101 -2.28468 0.219732
-0.892332 -2.34708 0.224566
-0.892069 -2.30425 0.222493
-0.873013 -2.23666 0.217658
-0.937698 -2.32878 0.225904
-0.875162 -2.3212 0.228822
-0.89261 -2.34657 0.230339
-0.892337 -2.32524 0.22904
-0.903406 -2.33159 0.229692
-0.903779 -2.30992 0.22883
-0.941905 -2.35905 0.233197
-0.89662 -2.37665 0.23903
-0.878378 -2.3089 0.232981
-0.874737 -2.27818 0.230967
-0.881571 -2.27547 0.230969
-0.896634 -2.29094 0.232313
-0.91928 -2.32478 0.235887
-0.865292 -2.2921 0.238139
-0.867689 -2.25913 0.234764
-0.878543 -2.26553 0.235888
-0.923309 -2.355 0.24373
-0.934953 -2.36106 0.244429
-0.946217 -2.3672 0.245578
-0.897963 -2.37514 0.252056
-0.890573 -2.33528 0.248264
-0.890267 -2.314 0.246379
-0.879184 -2.26481 0.241909
-0.88266 -2.25268 0.24119
-0.928113 -2.34182 0.249272
-0.895021 -2.36509 0.257592
-0.862123 -2.26022 0.248894
-0.857937 -2.22979 0.245799
-0.857635 -2.20845 0.244307
-0.876635 -2.23313 0.245699
-0.888985 -2.36687 0.264298
-0.895693 -2.36435 0.263406
-0.865992 -2.26892 0.255662
-0.854866 -2.21973 0.25179
-0.861944 -2.21698 0.25095
-0.876823 -2.23246 0.252918
-0.889248 -2.36632 0.269664
-0.881479 -2.32657 0.26647
-0.855735 -2.24042 0.258008
-0.85916 -2.22828 0.258062
-0.866241 -2.22547 0.258063
-0.873707 -2.22247 0.258064
-0.822166 -2.39749 -0.832813
-0.816567 -2.35924 -0.820054
-0.824042 -2.35673 -0.819605
-0.831923 -2.35405 -0.819156
-0.839796 -2.35134 -0.818708
-0.857874 -2.37486 -0.828586
-0.791658 -2.45086 -0.837873
-0.817481 -2.38158 -0.81954
-0.818573 -2.36098 -0.813426
-0.819647 -2.34068 -0.80643
-0.843588 -2.38226 -0.82279
-0.845029 -2.36178 -0.815793
-0.849636 -2.35016 -0.812073
-0.802462 -2.47898 -0.842614
-0.818659 -2.40366 -0.819362
-0.822546 -2.39194 -0.816999
-0.820112 -2.3627 -0.807235
-0.82796 -2.35988 -0.807228
-0.841865 -2.37496 -0.813725
-0.844146 -2.35431 -0.806329
-0.858154 -2.36929 -0.812821
-0.815735 -2.41698 -0.816307
-0.809968 -2.3789 -0.803396
-0.81704 -2.37641 -0.803388
-0.827706 -2.38266 -0.806605
-0.819086 -2.33532 -0.790908
-0.846249 -2.38571 -0.810713
-0.848045 -2.36489 -0.804248
-0.868746 -2.39776 -0.816707
-0.823076 -2.43676 -0.816395
-0.817719 -2.39833 -0.804023
-0.821217 -2.3869 -0.801259
-0.838771 -2.41098 -0.810416
-0.827044 -2.3548 -0.791184
-0.835279 -2.35181 -0.791177
-0.85949 -2.39338 -0.807192
-0.86697 -2.39044 -0.807635
-0.812012 -2.40225 -0.798653
-0.821924 -2.40899 -0.801379
-0.820048 -2.37965 -0.791378
-0.827489 -2.37684 -0.791815
-0.831795 -2.36538 -0.788182
-0.84296 -2.37157 -0.790911
-0.847968 -2.35963 -0.787725
-0.871962 -2.40129 -0.803616
-0.813537 -2.40394 -0.792373
-0.811238 -2.37459 -0.782881
-0.815123 -2.36316 -0.779712
-0.83222 -2.38744 -0.78874
-0.836921 -2.37566 -0.785573
-0.83793 -2.35526 -0.778805
-0.852851 -2.37031 -0.784224
-0.814636 -2.40577 -0.786087
-0.815484 -2.38535 -0.779802
-0.819812 -2.37375 -0.776657
-0.830028 -2.38003 -0.780233
-0.83115 -2.35975 -0.773062
-0.849719 -2.38362 -0.781568
-0.854292 -2.37167 -0.778875
-0.813489 -2.39845 -0.776233
-0.807886 -2.35983 -0.764655
-0.808941 -2.3393 -0.758414
-0.829216 -2.37257 -0.770428
-0.833444 -2.36094 -0.767306
-0.841801 -2.3582 -0.766413
-0.869934 -2.40876 -0.784622
-0.811905 -2.39125 -0.766424
-0.822133 -2.39759 -0.769952
-0.820053 -2.3679 -0.761117
-0.821019 -2.3472 -0.755367
-0.832167 -2.35359 -0.75757
-0.846135 -2.36874 -0.763743
-0.854471 -2.36582 -0.763292
-0.810305 -2.38402 -0.756658
-0.807834 -2.35447 -0.7479
-0.824846 -2.37874 -0.757088
-0.825833 -2.35801 -0.751392
-0.836927 -2.36412 -0.754451
-0.841499 -2.35231 -0.751378
-0.859312 -2.37632 -0.760125
-0.811747 -2.38548 -0.750866
-0.821552 -2.39198 -0.754349
-0.822631 -2.37123 -0.748698
-0.836976 -2.38633 -0.754779
-0.845004 -2.38372 -0.753879
-0.842955 -2.35374 -0.745631
-0.844594 -2.33297 -0.739096
-0.815921 -2.39607 -0.748092
-0.803964 -2.33965 -0.729963
-0.811333 -2.33703 -0.729955
-0.828403 -2.36129 -0.739008
-0.839933 -2.36725 -0.742021
-0.837958 -2.33766 -0.732516
-0.855247 -2.36161 -0.742009
-0.807884 -2.37051 -0.733275
-0.821306 -2.38601 -0.739264
-0.828821 -2.38334 -0.739256
-0.830256 -2.36255 -0.733252
-0.834978 -2.35113 -0.728922
-0.842746 -2.34813 -0.729357
-0.867262 -2.39007 -0.743877
-0.807808 -2.46376 -0.752969
-0.81552 -2.46099 -0.753416
-0.829013 -2.4764 -0.759816
-0.823783 -2.43765 -0.748361
-0.812053 -2.38108 -0.730491
-0.812756 -2.36058 -0.72453
-0.823454 -2.36706 -0.727056
-0.831371 -2.36436 -0.726605
-0.832676 -2.34357 -0.720652
-0.857049 -2.38562 -0.735063
-0.865347 -2.3824 -0.735506
-0.795077 -2.45012 -0.740209
-0.80016 -2.43833 -0.73725
-0.810838 -2.4445 -0.741097
-0.831006 -2.47799 -0.752888
-0.825234 -2.43909 -0.742444
-0.810308 -2.37347 -0.72175
-0.817368 -2.37098 -0.721742
-0.815167 -2.34134 -0.712869
-0.826296 -2.34777 -0.714937
-0.844043 -2.37211 -0.722894
-0.851882 -2.36909 -0.723333
-0.78581 -2.44518 -0.730919
-0.790857 -2.43328 -0.728435
-0.795921 -2.42163 -0.725047
-0.806219 -2.42823 -0.727961
-0.81964 -2.4437 -0.734255
-0.814986 -2.38413 -0.718023
-0.825188 -2.39038 -0.72184
-0.832763 -2.38782 -0.721386
-0.830972 -2.35812 -0.712141
-0.845897 -2.37333 -0.717102
-0.853419 -2.37071 -0.716651
-0.784125 -2.43727 -0.723016
-0.792357 -2.43496 -0.721647
-0.79691 -2.42318 -0.719186
-0.807686 -2.42977 -0.721626
-0.806952 -2.35869 -0.702622
-0.814338 -2.35593 -0.703054
-0.821714 -2.35316 -0.703488
-0.825909 -2.34161 -0.700133
-0.840328 -2.35687 -0.705498
-0.85532 -2.37203 -0.710409
-0.786 -2.43866 -0.716676
-0.79415 -2.43609 -0.716211
-0.798362 -2.4247 -0.712869
-0.809104 -2.43116 -0.715737
-0.811207 -2.36946 -0.698885
-0.815414 -2.35767 -0.696438
-0.813529 -2.32784 -0.687785
-0.824498 -2.33392 -0.691097
-0.845463 -2.36704 -0.702625
-0.852965 -2.36442 -0.702174
-0.783951 -2.43111 -0.707925
-0.789064 -2.41958 -0.704153
-0.799726 -2.42595 -0.707451
-0.807453 -2.4236 -0.706538
-0.813019 -2.37065 -0.693123
-0.807248 -2.33217 -0.681247
-0.827578 -2.36561 -0.692665
-0.84195 -2.38065 -0.698818
-0.836602 -2.34166 -0.687818
-0.85147 -2.3566 -0.693532
-0.788802 -2.44144 -0.70489
-0.790374 -2.42069 -0.699202
-0.801171 -2.42745 -0.701126
-0.808776 -2.42471 -0.701567
-0.820388 -2.39021 -0.693033
0.278711 2.62099 0.145401
0.279066 2.54061 0.143308
0.284517 2.51999 0.142199
0.289674 2.48934 0.140785
0.299981 2.50833 0.141788
0.308213 2.50742 0.142174
0.316441 2.50648 0.142562
0.3254 2.51549 0.143267
0.330822 2.49473 0.142158
0.342264 2.52354 0.143051
0.350056 2.53264 0.143325
0.357928 2.53166 0.142398
0.366676 2.54059 0.142665
0.276799 2.59082 0.151664
0.279523 2.54038 0.149042
0.282383 2.48988 0.14732
0.291593 2.49896 0.148038
0.300864 2.50804 0.147888
0.309094 2.50711 0.148711
0.31732 2.50618 0.148662
0.329792 2.54497 0.150407
0.331695 2.49441 0.148668
0.341478 2.51338 0.148427
0.352198 2.54227 0.14895
0.358812 2.53133 0.149013
0.368882 2.55015 0.150086
0.274861 2.56066 0.15687
0.279441 2.5301 0.155734
0.28427 2.49952 0.153729
0.292038 2.49872 0.153682
0.306053 2.54746 0.155865
0.310646 2.51681 0.154299
0.323911 2.55551 0.156571
0.332585 2.56457 0.156441
0.333338 2.50408 0.154673
0.346853 2.55275 0.156882
0.355166 2.56179 0.156758
0.357528 2.5212 0.154832
0.368006 2.53999 0.155506
0.273925 2.55053 0.16138
0.278908 2.51993 0.160185
0.281677 2.46942 0.158657
0.295005 2.51829 0.160085
0.300032 2.48757 0.159756
0.309304 2.49661 0.160092
0.324359 2.55527 0.16146
0.330687 2.54447 0.161035
0.336187 2.52369 0.160228
0.34774 2.55246 0.161768
0.356499 2.56141 0.162554
0.359696 2.5308 0.160481
0.368886 2.53969 0.160374
0.271523 2.52042 0.165921
0.281322 2.53956 0.166241
0.286607 2.50887 0.165853
0.293789 2.49806 0.16583
0.301551 2.49725 0.165349
0.310857 2.50626 0.166141
0.325956 2.56488 0.168535
0.332013 2.54407 0.167229
0.337064 2.52332 0.166815
0.349423 2.56209 0.167952
0.357767 2.57112 0.167868
0.359276 2.52054 0.166249
0.36711 2.51952 0.165766
0.275273 2.54993 0.172888
0.281227 2.52924 0.172863
0.285015 2.48871 0.170659
0.29423 2.49778 0.171472
0.303506 2.50681 0.172289
0.312847 2.51585 0.172234
0.326405 2.56459 0.174335
0.32966 2.52397 0.172571
0.335083 2.50321 0.17123
0.349069 2.5518 0.173768
0.357388 2.56086 0.173263
0.36101 2.53016 0.171945
0.365781 2.50934 0.171929
0.277125 2.55954 0.17909
0.28211 2.52892 0.17813
0.287927 2.50823 0.177615
0.294474 2.48746 0.176655
0.30438 2.50645 0.178385
0.314842 2.52537 0.179688
0.326585 2.55423 0.180123
0.330971 2.52354 0.178714
0.337163 2.51275 0.177779
0.351996 2.57135 0.179553
0.359545 2.57035 0.180406
0.35928 2.50999 0.176779
0.367079 2.50895 0.176736
0.27802 2.55918 0.184864
0.281004 2.50871 0.182452
0.28675 2.48802 0.181892
0.295969 2.49706 0.183183
0.303068 2.48625 0.182656
0.316841 2.53495 0.185433
0.327029 2.55386 0.186788
0.331408 2.52322 0.184423
0.337598 2.51241 0.183904
0.351637 2.56104 0.185348
0.358713 2.56018 0.184415
0.364924 2.5493 0.183904
0.371513 2.53837 0.182949
0.276013 2.52899 0.189151
0.281445 2.50836 0.18855
0.288644 2.49759 0.188003
0.297897 2.50662 0.189321
0.305025 2.49576 0.189639
0.317719 2.53456 0.191162
0.328353 2.5534 0.193003
0.330332 2.50288 0.190436
0.338463 2.512 0.190025
0.352077 2.56065 0.192039
0.358315 2.54982 0.191054
0.362313 2.5191 0.189079
0.278835 2.54845 0.196778
0.282317 2.50801 0.193774
0.289511 2.49719 0.194074
0.298766 2.50624 0.19498
0.307418 2.50525 0.1958
0.319725 2.54404 0.198298
0.328792 2.55305 0.198779
0.333146 2.52234 0.197591
0.341771 2.53138 0.197636
0.353398 2.56014 0.198725
0.359189 2.54936 0.197715
0.364051 2.52863 0.195746
0.278849 2.61825 0.208203
0.277775 2.5281 0.202756
0.284626 2.51744 0.201283
0.291845 2.50669 0.200251
0.298995 2.49582 0.200959
0.306077 2.48498 0.200794
0.323313 2.5634 0.205591
0.331278 2.56245 0.205991
0.332052 2.50203 0.202625
0.341849 2.52095 0.203689
0.353832 2.55972 0.205414
0.358776 2.53898 0.203827
0.36798 2.54785 0.204332
0.276918 2.58794 0.213736
0.27963 2.53758 0.209913
0.284491 2.507 0.208138
0.291671 2.49627 0.206645
0.298784 2.48548 0.206024
0.309146 2.50441 0.207552
0.323056 2.55305 0.210811
0.330988 2.55213 0.210765
0.33411 2.51146 0.209733
0.345173 2.54036 0.210101
0.353448 2.54938 0.210635
0.360081 2.53846 0.210017
0.36753 2.53751 0.209532
0.274013 2.54776 0.217168
0.279528 2.52717 0.215917
0.28579 2.50651 0.214228
0.291488 2.48585 0.212981
0.301794 2.50488 0.213259
0.310007 2.50398 0.213209
0.325075 2.56249 0.217625
0.331422 2.55173 0.216537
0.338147 2.54085 0.216337
0.343571 2.52002 0.215974
0.356842 2.56873 0.217599
0.359215 2.52817 0.215171
0.368392 2.53703 0.215724
0.274455 2.54739 0.222474
0.278984 2.51687 0.220561
0.28579 2.50613 0.220325
0.292961 2.49538 0.219217
0.302223 2.50443 0.219789
0.310434 2.50353 0.219739
0.324365 2.55217 0.222798
0.332294 2.55122 0.223195
0.332551 2.49091 0.218982
0.348941 2.55928 0.223284
0.356009 2.55839 0.223244
0.35964 2.52779 0.220458
0.368814 2.53659 0.221915
0.276804 2.56682 0.22996
0.282808 2.54621 0.228174
0.285048 2.48576 0.225116
0.292769 2.48493 0.225501
0.306328 2.53371 0.227819
0.310175 2.4931 0.225618
0.321794 2.52194 0.227074
0.333167 2.55083 0.227632
0.3334 2.49044 0.224615
0.348133 2.54899 0.22799
0.353078 2.52824 0.226664
0.360931 2.5272 0.227061
0.368346 2.52625 0.226579
0.27769 2.56638 0.235304
0.281272 2.52596 0.232147
0.285046 2.48544 0.229867
0.294245 2.49449 0.230918
0.301766 2.48359 0.231061
0.314382 2.52234 0.2337
0.319918 2.50163 0.23231
0.328871 2.51068 0.232063
0.33546 2.4999 0.230478
0.345274 2.51877 0.232204
0.353499 2.52781 0.23239
0.359617 2.51696 0.231684
0.371419 2.54553 0.234521
0.292047 2.62476 0.244732
0.288374 2.50474 0.237289
0.294474 2.48404 0.235855
0.305225 2.50289 0.238057
0.314119 2.51188 0.239579
0.32351 2.52088 0.239789
0.334899 2.5497 0.241388
0.346028 2.57859 0.242079
0.350667 2.55798 0.239769
0.361987 2.58668 0.242233
0.369577 2.5857 0.24219
0.376277 2.57474 0.24146
0.29638 2.49338 0.243477
0.302369 2.47267 0.241989
0.31385 2.5015 0.244098
0.293617 2.46324 0.246026
0.304306 2.48208 0.248315
0.313571 2.49108 0.249009
0.294638 2.54292 0.257728
0.297651 2.49247 0.253871
0.30515 2.48156 0.253921
0.312852 2.48059 0.25517
0.294905 2.53235 0.263562
0.297856 2.48188 0.260006
0.30599 2.48099 0.259957
0.315685 2.4899 0.261128
0.295328 2.53181 0.269721
0.299769 2.49121 0.266855
0.307935 2.49031 0.266806
0.323627 2.55876 0.272451
0.0590512 2.40909 -0.865034
0.0663073 2.41813 -0.869139
0.0736246 2.42732 -0.872827
0.0806234 2.41785 -0.869251
0.0599575 2.41102 -0.860043
0.0672353 2.42039 -0.863292
0.0742307 2.41077 -0.860156
0.0811282 2.41978 -0.864237
0.060457 2.41327 -0.854211
0.0681589 2.42248 -0.857858
0.0752376 2.44101 -0.865089
0.0820773 2.42219 -0.857967
0.0617864 2.41516 -0.849214
0.0692196 2.43373 -0.856408
0.0762531 2.42424 -0.852896
0.0836185 2.43326 -0.856941
0.10722 2.47012 -0.870971
0.11584 2.47014 -0.870182
0.125659 2.52569 -0.892079
0.0621776 2.40819 -0.839409
0.0698751 2.44531 -0.854066
0.0762517 2.39842 -0.836392
0.0849504 2.47304 -0.864818
0.102083 2.5474 -0.893308
0.106189 2.40711 -0.83975
0.11415 2.40682 -0.83981
0.122822 2.42536 -0.846542
0.13008 2.40634 -0.839512
0.138022 2.41518 -0.84353
0.147356 2.45217 -0.857771
0.15695 2.49832 -0.87599
0.166821 2.54443 -0.894225
0.0556504 2.42032 -0.835793
0.0631085 2.41069 -0.832754
0.070506 2.40104 -0.829711
0.0773555 2.40995 -0.834116
0.0852955 2.44705 -0.848688
0.093465 2.48429 -0.862846
0.099683 2.42793 -0.841752
0.108023 2.43734 -0.844496
0.116528 2.43735 -0.843717
0.123446 2.41819 -0.837152
0.13185 2.42752 -0.839893
0.139456 2.42717 -0.839949
0.147039 2.42648 -0.840843
0.15422 2.42611 -0.840895
0.162893 2.4536 -0.851939
0.170569 2.45299 -0.852418
0.0565113 2.37564 -0.812479
0.0641583 2.42239 -0.830002
0.0713145 2.42195 -0.830896
0.0779361 2.39355 -0.820874
0.085841 2.43068 -0.835346
0.0939162 2.44889 -0.843253
0.100649 2.43027 -0.83546
0.108688 2.43 -0.83552
0.117389 2.44859 -0.84216
0.125213 2.42985 -0.834383
0.134817 2.46694 -0.848431
0.142107 2.46645 -0.848911
0.148499 2.43815 -0.838047
0.155647 2.42824 -0.835025
0.163398 2.44626 -0.842918
0.171716 2.4647 -0.849549
0.057189 2.39637 -0.814088
0.0648179 2.40549 -0.818035
0.0725173 2.41488 -0.821152
0.0790462 2.40506 -0.818563
0.0867884 2.43285 -0.829467
0.0942263 2.44203 -0.833
0.101484 2.41352 -0.823045
0.110069 2.43199 -0.830066
0.117122 2.40374 -0.819269
0.126174 2.43169 -0.829344
0.136216 2.47849 -0.845934
0.143993 2.47829 -0.845562
0.149472 2.43092 -0.828673
0.157205 2.44929 -0.835672
0.166479 2.48618 -0.850054
0.172089 2.44797 -0.837049
0.0586194 2.40788 -0.811747
0.0661357 2.43593 -0.822152
0.0728608 2.40749 -0.812276
0.0803581 2.42611 -0.819234
0.088181 2.45408 -0.829645
0.0958551 2.45356 -0.830553
0.102446 2.4158 -0.81679
0.110006 2.4154 -0.817265
0.11875 2.42446 -0.820785
0.126787 2.42445 -0.820006
0.136383 2.47115 -0.836907
0.144126 2.47079 -0.836964
0.150507 2.44244 -0.826238
0.159122 2.46062 -0.833622
0.166489 2.46961 -0.837124
0.173796 2.46918 -0.837176
0.0590042 2.40046 -0.802912
0.0665241 2.40035 -0.802972
0.0739564 2.41915 -0.809465
0.0809161 2.40945 -0.80651
0.0889119 2.44669 -0.820704
0.0963985 2.45588 -0.82419
0.103409 2.41807 -0.810528
0.111834 2.41794 -0.810174
0.118979 2.41752 -0.810645
0.1285 2.44518 -0.821426
0.138613 2.4919 -0.838221
0.145999 2.4823 -0.834416
0.151927 2.44438 -0.82075
0.158734 2.44402 -0.820799
0.168539 2.49035 -0.838437
0.175364 2.48054 -0.835055
0.0602196 2.39301 -0.79412
0.0677058 2.42094 -0.804815
0.0737836 2.38307 -0.791646
0.0818084 2.43021 -0.807913
0.0898597 2.44867 -0.815209
0.0977832 2.45785 -0.818678
0.104083 2.41078 -0.801272
0.111937 2.41976 -0.805156
0.120713 2.42899 -0.808209
0.129872 2.45684 -0.818494
0.137954 2.46558 -0.822812
0.146561 2.48415 -0.829263
0.151132 2.42745 -0.808851
0.161201 2.47398 -0.825961
0.169564 2.49234 -0.832835
0.172673 2.42623 -0.809004
0.0605053 2.41361 -0.79593
0.068491 2.44187 -0.805729
0.0748756 2.39469 -0.788857
0.0829404 2.44157 -0.805843
0.0906123 2.4602 -0.81267
0.0971344 2.43178 -0.802567
0.104323 2.40331 -0.792469
0.11333 2.42198 -0.798886
0.120579 2.41244 -0.795141
0.130068 2.44972 -0.808736
0.139396 2.47756 -0.818948
0.147148 2.47704 -0.819432
0.152597 2.43892 -0.806363
0.160858 2.46659 -0.817002
0.169097 2.47539 -0.820876
0.0617446 2.40672 -0.785487
0.0685745 2.41573 -0.789734
0.0760484 2.43412 -0.797357
0.0836801 2.4341 -0.796995
0.0913292 2.45259 -0.804205
0.0983377 2.44313 -0.800472
0.105857 2.42434 -0.792964
0.113872 2.42406 -0.793025
0.122317 2.42389 -0.792668
0.131065 2.45196 -0.802384
0.139981 2.47984 -0.812518
0.146857 2.4605 -0.806281
0.152646 2.42203 -0.794147
0.162297 2.46851 -0.811459
0.170221 2.48692 -0.818245
0.0622355 2.40863 -0.780081
0.070073 2.42736 -0.786816
0.077072 2.41764 -0.783952
0.0841936 2.43604 -0.791526
0.0918593 2.45469 -0.798269
0.099037 2.43578 -0.791219
0.106799 2.4261 -0.787939
0.115169 2.43569 -0.790078
0.122867 2.42596 -0.786801
0.132054 2.45403 -0.796449
0.141012 2.47265 -0.802754
0.147854 2.45329 -0.796564
0.15419 2.44322 -0.794122
0.163412 2.48033 -0.807965
0.171701 2.48914 -0.811794
0.0560267 2.41092 -0.773784
0.0635826 2.41096 -0.773428
0.0710099 2.42956 -0.780527
0.0777543 2.42898 -0.78184
0.0851444 2.43825 -0.785214
0.0930022 2.44718 -0.789438
0.100417 2.43782 -0.785332
0.107168 2.40929 -0.775432
0.115879 2.41842 -0.778815
0.124252 2.42783 -0.781354
0.133863 2.46549 -0.793827
0.141985 2.48386 -0.800937
0.14798 2.44593 -0.787308
0.154682 2.42669 -0.780736
0.165387 2.49194 -0.804849
0.171781 2.48197 -0.80201
0.0563337 2.39421 -0.760959
0.0640752 2.41285 -0.768013
0.0715111 2.43146 -0.775069
0.0791258 2.4313 -0.775129
0.0858806 2.43085 -0.776023
0.0939719 2.44953 -0.782672
0.100829 2.42084 -0.773261
0.109141 2.43016 -0.7762
0.11643 2.4206 -0.772542
0.124431 2.42029 -0.772601
0.134848 2.46739 -0.788286
0.143001 2.47647 -0.791635
0.148504 2.43823 -0.778941
0.156634 2.44741 -0.781866
0.165474 2.4846 -0.795516
0.172812 2.48403 -0.795998
0.057746 2.40537 -0.759272
0.065544 2.4243 -0.76545
0.0718166 2.39569 -0.756116
0.0787163 2.38609 -0.752902
0.0876828 2.47081 -0.782806
0.0949212 2.45142 -0.777172
0.101516 2.41355 -0.763715
0.109973 2.44149 -0.774013
0.117462 2.41285 -0.764252
0.125823 2.42227 -0.766749
0.135394 2.46915 -0.783166
0.143564 2.47838 -0.786066
0.149956 2.44968 -0.776309
0.157141 2.43984 -0.773093
0.166418 2.47718 -0.78623
0.172773 2.46734 -0.783007
0.0586518 2.40722 -0.753873
0.0657651 2.40697 -0.754345
0.0728889 2.40698 -0.753986
0.0798184 2.39738 -0.750794
0.0882009 2.45379 -0.770759
0.0954001 2.43482 -0.763897
0.103162 2.42498 -0.76113
0.110448 2.41527 -0.757938
0.119025 2.44335 -0.767746
0.127147 2.43341 -0.764979
0.136407 2.46155 -0.774369
0.144992 2.48023 -0.780499
0.150024 2.43264 -0.764303
0.158645 2.45142 -0.770009
0.167515 2.48852 -0.783906
0.174865 2.48794 -0.784389
0.0595587 2.40906 -0.74847
0.0665408 2.39934 -0.745715
0.073964 2.41814 -0.752226
0.0806935 2.418 -0.752279
0.0887131 2.43688 -0.758372
0.0966577 2.46492 -0.768533
0.10355 2.43645 -0.758485
0.111403 2.41724 -0.752095
0.119735 2.4264 -0.755382
0.128131 2.43554 -0.758669
0.136152 2.44452 -0.762376
0.144687 2.46321 -0.768465
0.150542 2.42501 -0.755608
0.158699 2.44353 -0.762116
0.168543 2.49053 -0.777879
0.175336 2.48035 -0.775563
0.0599373 2.40142 -0.739855
0.067734 2.42024 -0.746323
0.0744636 2.41998 -0.746794
0.081814 2.42929 -0.750056
0.0898757 2.44819 -0.756105
0.0978035 2.45758 -0.758944
0.104356 2.41933 -0.746606
0.112684 2.42881 -0.749033
0.121058 2.43797 -0.752295
0.129106 2.4375 -0.752776
0.137583 2.44675 -0.755617
0.144794 2.43678 -0.752891
0.151053 2.41736 -0.746951
0.159194 2.43589 -0.753416
0.168486 2.47317 -0.766723
0.174706 2.45397 -0.759932
0.0610839 2.42261 -0.739575
0.0685144 2.41272 -0.73729
0.0750475 2.40284 -0.734992
0.0825471 2.42164 -0.741417
0.0906125 2.45936 -0.754213
0.0983204 2.45929 -0.753847
0.105744 2.44972 -0.750298
0.114274 2.44956 -0.749938
0.121668 2.43031 -0.743637
0.130475 2.44907 -0.749636
0.137721 2.43911 -0.746934
0.145358 2.43875 -0.74699
0.152089 2.42877 -0.74428
0.159747 2.43757 -0.748359
0.166956 2.43716 -0.74841
0.083878 2.4424 -0.742307
0.0931756 2.52772 -0.770397
0.0995338 2.4706 -0.751485
0.108583 2.49893 -0.760602
0.115774 2.47983 -0.753911
0.123617 2.47004 -0.750812
0.131781 2.4697 -0.750873
0.160255 2.43017 -0.738872
0.167418 2.42948 -0.739764
0.307728 2.6176 -0.89762
0.287778 2.49963 -0.845646
0.293625 2.48012 -0.838825
0.30429 2.49768 -0.84618
0.311515 2.48756 -0.84236
0.323654 2.52397 -0.856145
0.337832 2.57918 -0.876347
0.280469 2.58732 -0.871059
0.281121 2.51184 -0.843361
0.288482 2.50179 -0.839565
0.296193 2.4915 -0.836206
0.303999 2.49064 -0.836253
0.313275 2.49889 -0.840148
0.323283 2.51664 -0.84702
0.33073 2.51575 -0.847063
0.337467 2.50544 -0.843695
0.346791 2.52321 -0.850563
0.355458 2.53157 -0.854018
0.368288 2.56763 -0.868167
0.275698 2.61843 -0.874887
0.273033 2.50542 -0.833814
0.280361 2.49507 -0.830909
0.287682 2.48516 -0.826704
0.299486 2.5219 -0.839866
0.305188 2.49303 -0.829324
0.314496 2.50144 -0.832758
0.326666 2.53758 -0.84723
0.329668 2.49916 -0.834153
0.337063 2.49824 -0.834196
0.346787 2.51582 -0.841458
0.356666 2.53367 -0.847843
0.361721 2.51418 -0.840663
0.272005 2.56417 -0.848765
0.276387 2.5259 -0.835337
0.280566 2.48793 -0.821042
0.289787 2.49659 -0.824025
0.299504 2.50517 -0.827008
0.307373 2.50445 -0.826619
0.31842 2.53162 -0.836753
0.32962 2.55859 -0.847332
0.331986 2.51072 -0.830994
0.33935 2.50933 -0.832348
0.352705 2.55525 -0.848801
0.356616 2.5261 -0.839174
0.365328 2.53444 -0.842587
0.270505 2.5383 -0.832053
0.275268 2.50943 -0.822065
0.284514 2.51796 -0.825462
0.290941 2.4988 -0.81752
0.299203 2.4979 -0.81757
0.306855 2.48757 -0.814281
0.320032 2.53364 -0.830591
0.32863 2.54212 -0.833974
0.333182 2.51293 -0.824439
0.34407 2.53991 -0.834948
0.351077 2.53854 -0.836315
0.356603 2.51882 -0.829663
0.365321 2.52732 -0.832612
0.271603 2.54008 -0.826767
0.274518 2.4924 -0.810189
0.282797 2.49187 -0.809374
0.292473 2.50049 -0.812314
0.301796 2.50927 -0.814812
0.309676 2.50854 -0.814423
0.324414 2.56366 -0.834816
0.330255 2.54413 -0.827784
0.333243 2.50575 -0.814561
0.346448 2.55148 -0.831631
0.355167 2.55972 -0.835438
0.35904 2.53036 -0.826403
0.241481 2.5363 -0.814899
0.271875 2.53306 -0.816413
0.277958 2.51348 -0.809865
0.283379 2.4843 -0.80045
0.292167 2.49302 -0.803366
0.301446 2.50166 -0.80628
0.312297 2.51975 -0.812051
0.322374 2.53774 -0.818245
0.330971 2.54607 -0.822025
0.335092 2.51704 -0.812184
0.346036 2.54421 -0.822112
0.354712 2.55231 -0.826339
0.356158 2.50452 -0.809887
0.242587 2.53835 -0.808742
0.250896 2.54696 -0.812502
0.259258 2.55554 -0.816266
0.265948 2.54543 -0.813041
0.270764 2.51633 -0.803703
0.277719 2.50615 -0.800476
0.285045 2.4959 -0.797252
0.294705 2.50422 -0.801016
0.302568 2.50351 -0.800627
0.312974 2.52151 -0.806791
0.324124 2.54875 -0.816663
0.331038 2.53872 -0.812551
0.335123 2.50966 -0.802778
0.349545 2.56484 -0.8229
0.355959 2.55465 -0.819223
0.360257 2.52534 -0.809891
0.24918 2.6059 -0.826664
0.259366 2.63365 -0.836013
0.260367 2.55744 -0.810502
0.267059 2.54731 -0.807299
0.273229 2.52772 -0.800843
0.280212 2.51752 -0.79764
0.286169 2.49789 -0.791183
0.295878 2.50652 -0.794052
0.302087 2.48666 -0.788032
0.313488 2.51392 -0.797841
0.325743 2.55072 -0.810458
0.331032 2.53089 -0.804438
0.333264 2.48328 -0.787349
0.347201 2.53856 -0.807336
0.355891 2.54683 -0.811074
0.360988 2.52723 -0.804167
0.246341 2.56083 -0.804193
0.253902 2.56001 -0.804686
0.265277 2.60649 -0.820885
0.273868 2.61519 -0.824164
0.273895 2.52962 -0.795137
0.279007 2.50057 -0.785492
0.285336 2.48089 -0.77908
0.293969 2.47997 -0.779132
0.303238 2.48877 -0.781549
0.314182 2.5158 -0.792156
0.326453 2.55263 -0.804687
0.331103 2.52363 -0.794601
0.336682 2.50372 -0.788625
0.347628 2.53096 -0.79836
0.357088 2.54882 -0.804862
0.359646 2.51 -0.792854
0.246625 2.55312 -0.795656
0.253351 2.54302 -0.792495
0.261729 2.55176 -0.795753
0.268395 2.54162 -0.792591
0.273651 2.51286 -0.782139
0.281503 2.51192 -0.782625
0.286469 2.48298 -0.772616
0.29714 2.50104 -0.778648
0.305388 2.49998 -0.779132
0.319017 2.54624 -0.794774
0.328071 2.55457 -0.798472
0.329974 2.50649 -0.782914
0.337409 2.50572 -0.78252
0.353058 2.57027 -0.805914
0.357073 2.5414 -0.795437
0.362091 2.52148 -0.789501
0.26064 2.62044 -0.812259
0.263247 2.56309 -0.793182
0.269502 2.54346 -0.786857
0.27384 2.51447 -0.777337
0.283063 2.51383 -0.776521
0.288978 2.49415 -0.770199
0.296788 2.49331 -0.770246
0.305086 2.49283 -0.768994
0.318646 2.5387 -0.785831
0.326597 2.53777 -0.785878
0.331151 2.50857 -0.776371
0.339689 2.51677 -0.780474
0.351882 2.55344 -0.793269
0.35579 2.52426 -0.783746
0.363256 2.52327 -0.783788
0.277285 2.62088 -0.806448
0.276313 2.52581 -0.774393
0.281809 2.49665 -0.76495
0.2877 2.47725 -0.757806
0.2969 2.4858 -0.761017
0.306613 2.49441 -0.763799
0.319824 2.54079 -0.779207
0.327761 2.53971 -0.779696
0.334098 2.5291 -0.777459
0.340417 2.51875 -0.774337
0.353795 2.56472 -0.790651
0.35651 2.5261 -0.778027
0.362736 2.51571 -0.774901
0.276182 2.60389 -0.794239
0.27696 2.52751 -0.76913
0.283424 2.50792 -0.762456
0.289742 2.48816 -0.756218
0.300036 2.50644 -0.761684
0.306242 2.48679 -0.75502
0.319862 2.53301 -0.770766
0.330699 2.56056 -0.779782
0.331869 2.50288 -0.761436
0.341583 2.52066 -0.768197
0.352621 2.54797 -0.777665
0.357648 2.52773 -0.772745
0.363059 2.50785 -0.766495
0.276919 2.59667 -0.78389
0.277608 2.52008 -0.759429
0.283565 2.50023 -0.753672
0.291846 2.4995 -0.753287
0.301147 2.5082 -0.756023
0.308402 2.49797 -0.752518
0.319491 2.52553 -0.761478
0.328512 2.53403 -0.764642
0.33304 2.50491 -0.754901
0.342789 2.52285 -0.761174
0.355733 2.56865 -0.778133
0.358871 2.52991 -0.765697
0.365076 2.51935 -0.763056
0.276709 2.58921 -0.77448
0.279232 2.53163 -0.755958
0.285113 2.50207 -0.747596
0.29139 2.48229 -0.741447
0.303282 2.51939 -0.753454
0.309495 2.49956 -0.747308
0.317137 2.48939 -0.743395
0.32969 2.53607 -0.758027
0.333003 2.49706 -0.746575
0.344647 2.53393 -0.758995
0.350938 2.52354 -0.755943
0.359589 2.53171 -0.759963
0.277408 2.58178 -0.76467
0.279838 2.52387 -0.747174
0.28774 2.52306 -0.747222
0.294065 2.50311 -0.741559
0.304835 2.52108 -0.747764
0.310642 2.50156 -0.740788
0.318475 2.50065 -0.740834
0.327444 2.50931 -0.743517
0.334169 2.49904 -0.740055
0.344617 2.52622 -0.750186
0.349675 2.50639 -0.744081
0.360809 2.53386 -0.752902
0.363647 2.54496 -0.750215
-1.70573 1.67625 0.154908
-1.68784 1.68051 0.154218
-1.68978 1.69286 0.155278
-1.64984 1.67652 0.154259
-1.64465 1.6818 0.15411
-1.67485 1.72229 0.15628
-1.64863 1.70615 0.154578
-1.63632 1.70434 0.153635
-1.73188 1.69192 0.161687
-1.71944 1.69058 0.160287
-1.70006 1.68195 0.15935
-1.69454 1.68769 0.159607
-1.71023 1.71457 0.16105
-1.70456 1.72033 0.162158
-1.65644 1.68374 0.160418
-1.67228 1.71043 0.160637
-1.6811 1.72986 0.162129
-1.67606 1.73495 0.161564
-1.62876 1.69747 0.1586
-1.63085 1.70952 0.158031
-1.61158 1.70047 0.156684
-1.61361 1.71251 0.156113
-1.64272 1.75383 0.159158
-1.72346 1.68588 0.168011
-1.68203 1.65693 0.166544
-1.68447 1.66895 0.165172
-1.69341 1.68851 0.165439
-1.695 1.70117 0.166959
-1.68198 1.7002 0.166783
-1.67668 1.70556 0.167466
-1.67106 1.71121 0.168143
-1.6661 1.71627 0.167162
-1.67521 1.73546 0.167453
-1.6276 1.69824 0.165159
-1.6297 1.71029 0.164205
-1.61101 1.70066 0.163231
-1.62669 1.7273 0.163513
-1.64188 1.75434 0.164604
-1.71533 1.67953 0.173868
-1.70321 1.67782 0.17285
-1.69801 1.68327 0.172697
-1.69944 1.69625 0.172138
-1.71568 1.72257 0.173325
-1.69539 1.71467 0.173947
-1.67555 1.70637 0.17288
-1.67025 1.71172 0.173147
-1.67198 1.7241 0.174288
-1.66699 1.72918 0.172884
-1.62707 1.69844 0.170499
-1.61509 1.69624 0.169909
-1.62383 1.71569 0.170245
-1.6255 1.72806 0.170128
-1.65426 1.76976 0.17218
-1.72203 1.68661 0.179797
-1.68789 1.66454 0.177736
-1.68274 1.66994 0.177584
-1.69163 1.68949 0.178794
-1.71479 1.72307 0.179687
-1.68774 1.7079 0.178107
-1.63233 1.66451 0.175053
-1.6836 1.72629 0.179098
-1.67853 1.73137 0.179376
-1.6523 1.7152 0.178223
-1.62625 1.69893 0.175418
-1.62796 1.71123 0.176566
-1.62329 1.71588 0.175607
-1.63887 1.74256 0.176865
-1.62589 1.74118 0.177063
-1.72116 1.68711 0.185685
-1.70173 1.6785 0.185374
-1.68937 1.67704 0.183883
-1.70514 1.70387 0.185213
-1.72136 1.73023 0.186129
-1.67293 1.69412 0.182153
-1.65284 1.68602 0.181826
-1.66177 1.70538 0.183082
-1.67769 1.73186 0.18442
-1.6444 1.7086 0.183123
-1.6397 1.71328 0.182989
-1.62072 1.70401 0.181029
-1.61544 1.7092 0.18088
-1.62404 1.72869 0.182133
-1.69161 1.65981 0.189062
-1.69374 1.67213 0.188601
-1.68132 1.67061 0.188759
-1.70486 1.70376 0.190696
-1.71331 1.72375 0.191568
-1.66488 1.68759 0.188279
-1.64517 1.67919 0.186668
-1.66831 1.7126 0.18859
-1.67035 1.72469 0.189384
-1.64388 1.70879 0.187676
-1.63183 1.70665 0.18743
-1.62686 1.71159 0.186876
-1.6219 1.71653 0.185909
-1.61654 1.7217 0.186587
-1.77551 1.73058 0.199733
-1.70526 1.67405 0.195112
-1.70037 1.6792 0.194967
-1.69517 1.68464 0.194814
-1.71085 1.71148 0.19712
-1.7124 1.72422 0.197503
-1.67112 1.69504 0.194613
-1.64425 1.67963 0.193232
-1.66034 1.70602 0.193886
-1.66209 1.71838 0.194694
-1.63624 1.70187 0.192932
-1.63131 1.70684 0.191965
-1.6123 1.69751 0.191157
-1.60702 1.70266 0.191419
-1.62265 1.72933 0.192062
-1.7165 1.67621 0.201663
-1.70439 1.67453 0.200531
-1.69199 1.67308 0.19981
-1.694 1.68542 0.200225
-1.71745 1.71861 0.20276
-1.71144 1.72466 0.204288
-1.67733 1.70247 0.201414
-1.65758 1.69411 0.199698
-1.68095 1.72728 0.201828
-1.66859 1.72562 0.200267
-1.64211 1.70969 0.198839
-1.63743 1.71437 0.198292
-1.62546 1.71222 0.196763
-1.61344 1.70997 0.196885
-1.61476 1.72257 0.198116
-1.73042 1.6901 0.208297
-1.69654 1.66781 0.205784
-1.69171 1.67296 0.204807
-1.6862 1.67864 0.205479
-1.71655 1.71907 0.208268
-1.70376 1.71789 0.207939
-1.64825 1.67465 0.204465
-1.64987 1.68724 0.204901
-1.68649 1.73535 0.208712
-1.66765 1.72604 0.206549
-1.62073 1.68831 0.202057
-1.63655 1.71481 0.203665
-1.61755 1.70551 0.202354
-1.61955 1.71756 0.202385
-1.63471 1.7445 0.205228
-1.72232 1.68373 0.212324
-1.70291 1.67516 0.211375
-1.69049 1.67369 0.211026
-1.685 1.67939 0.211282
-1.71559 1.71951 0.214626
-1.70965 1.72559 0.214879
-1.66131 1.68938 0.211017
-1.65603 1.69467 0.211695
-1.65788 1.70702 0.211747
-1.66702 1.72617 0.212417
-1.62655 1.69609 0.208784
-1.62195 1.70075 0.207419
-1.62397 1.71278 0.207884
-1.6259 1.72483 0.208764
-1.6411 1.75183 0.210424
-1.70684 1.67043 0.217771
-1.70172 1.67591 0.216783
-1.67521 1.66034 0.214734
-1.69131 1.68677 0.216895
-1.71443 1.72029 0.219274
-1.67985 1.69841 0.218655
-1.68167 1.71077 0.219565
-1.66899 1.70942 0.218759
-1.68485 1.73587 0.221383
-1.65164 1.71273 0.217822
-1.63966 1.71066 0.216209
-1.62096 1.70112 0.21439
-1.62275 1.71348 0.213639
-1.62441 1.72582 0.214119
-1.66065 1.77403 0.218592
-1.69859 1.66396 0.22419
-1.69346 1.66941 0.223621
-1.6884 1.67488 0.221804
-1.69034 1.68718 0.223147
-1.71311 1.72098 0.226471
-1.68609 1.70583 0.224316
-1.64492 1.67648 0.221661
-1.67519 1.71688 0.224421
-1.69106 1.74338 0.22626
-1.65777 1.72021 0.22388
-1.62465 1.69686 0.221081
-1.62674 1.70891 0.220779
-1.6357 1.72809 0.221956
-1.63736 1.74051 0.22163
-1.64554 1.76039 0.222781
-1.70457 1.67153 0.231101
-1.71418 1.69048 0.231502
-1.68738 1.67525 0.228861
-1.68196 1.68098 0.227869
-1.69787 1.7075 0.230602
-1.67798 1.69924 0.229903
-1.63688 1.66987 0.226705
-1.67415 1.71724 0.231537
-1.66148 1.71584 0.230683
-1.63567 1.69938 0.228058
-1.6307 1.70432 0.227917
-1.62575 1.70927 0.227364
-1.62075 1.71418 0.227223
-1.63633 1.74085 0.228717
-1.70033 1.81789 0.234104
-1.71116 1.67852 0.237241
-1.69154 1.67021 0.235653
-1.70076 1.68945 0.236934
-1.68119 1.68102 0.235349
-1.67546 1.68702 0.234348
-1.6557 1.67872 0.232767
-1.63597 1.67027 0.232006
-1.65203 1.69659 0.233996
-1.62556 1.6807 0.232527
-1.64175 1.70683 0.234532
-1.63009 1.70444 0.232859
-1.6178 1.70253 0.23241
-1.62679 1.7217 0.233279
-1.64929 1.75555 0.235546
-1.73192 1.69953 0.244896
-1.71195 1.6916 0.243253
-1.69981 1.68986 0.242369
-1.68742 1.68836 0.241477
-1.68875 1.70132 0.242046
-1.6761 1.70005 0.24073
-1.67052 1.70569 0.240987
-1.65814 1.70399 0.240516
-1.63908 1.69492 0.238487
-1.64078 1.70719 0.240315
-1.62209 1.69769 0.238293
-1.62418 1.70974 0.238064
-1.61189 1.70779 0.237593
-1.68995 1.79884 0.246248
-1.71408 1.76034 0.251562
-1.63811 1.69528 0.244244
-1.62613 1.69316 0.243344
-1.62112 1.69804 0.244025
-1.61619 1.70296 0.243475
-1.7154 1.81521 0.254267
-1.63719 1.69567 0.249176
-1.61145 1.6791 0.246705
-1.60654 1.68398 0.246566
-1.61556 1.70305 0.248394
-1.73316 1.78213 0.266849
-1.62951 1.6887 0.253314
-1.61024 1.67976 0.251565
-1.61933 1.69882 0.253025
-1.61463 1.70342 0.253303
-1.6756 1.72618 0.266664
-1.63543 1.69601 0.261518
-1.61653 1.68686 0.258487
-1.61863 1.69886 0.258763
-1.62064 1.71087 0.259446
-1.65344 1.70542 0.26954
-1.63445 1.69635 0.266858
-1.62248 1.69421 0.265863
-1.61066 1.6921 0.263235
-1.62663 1.71833 0.265633
-1.64562 1.69839 0.274879
-1.61925 1.68246 0.272485
-1.61475 1.68715 0.27072
-1.61684 1.69915 0.271048
-1.63287 1.72546 0.272287
-1.64436 1.69902 0.279817
-1.61546 1.69969 0.277586
-1.69373 1.79034 0.288275
-1.72362 1.68361 1.05095
-1.70491 1.67627 1.04365
-1.70688 1.68796 1.04687
-1.69533 1.68671 1.04294
-1.63833 1.70566 1.03053
-1.64598 1.72399 1.03834
-1.62802 1.71577 1.03065
-1.72763 1.68933 1.06062
-1.72274 1.69457 1.06048
-1.70447 1.687 1.05273
-1.70638 1.6987 1.05596
-1.70782 1.71062 1.05961
-1.70907 1.72245 1.06368
-1.68398 1.70849 1.05212
-1.66529 1.7012 1.04436
-1.69229 1.73977 1.06319
-1.68679 1.74562 1.0626
-1.65566 1.72447 1.04727
-1.63725 1.7165 1.03995
-1.63228 1.72147 1.03981
-1.62717 1.72631 1.04008
-1.62861 1.7379 1.04373
-1.63013 1.74962 1.04697
-1.63713 1.7684 1.05482
-1.68878 1.8343 1.08881
-1.71218 1.67547 1.05846
-1.70734 1.68067 1.05832
-1.6958 1.67945 1.05435
-1.73073 1.72295 1.07756
-1.72575 1.7282 1.07742
-1.72071 1.73397 1.07641
-1.682 1.70731 1.05757
-1.67592 1.71309 1.05824
-1.67735 1.7251 1.06149
-1.67135 1.73097 1.06174
-1.65315 1.72333 1.05352
-1.64138 1.72206 1.04956
-1.63682 1.72687 1.049
-1.62549 1.72533 1.04463
-1.62037 1.73015 1.04491
-1.62776 1.74856 1.0528
-1.70961 1.6744 1.06473
-1.7184 1.69255 1.07143
-1.70004 1.68487 1.06402
-1.73518 1.72859 1.08651
-1.71649 1.72119 1.0791
-1.70448 1.72013 1.07552
-1.68546 1.71327 1.06766
-1.65396 1.69271 1.05214
-1.68092 1.73066 1.07204
-1.68197 1.74301 1.0753
-1.67693 1.74811 1.07515
-1.63282 1.71416 1.05153
-1.63415 1.72612 1.0548
-1.62271 1.72446 1.05082
-1.61801 1.7291 1.05069
-1.63832 1.76092 1.06589
-1.76539 1.7186 1.10254
-1.71373 1.67966 1.07486
-1.71568 1.69133 1.07817
-1.71063 1.69696 1.07759
-1.73282 1.72769 1.09206
-1.72078 1.72671 1.08847
-1.70846 1.72598 1.08487
-1.66317 1.69272 1.06235
-1.65089 1.69164 1.05915
-1.69125 1.74294 1.08565
-1.67259 1.73561 1.07775
-1.67376 1.74753 1.08147
-1.64296 1.72644 1.06544
-1.62519 1.71836 1.05716
-1.62064 1.72312 1.05661
-1.62818 1.74159 1.06418
-1.62953 1.75319 1.0679
-1.64964 1.78511 1.08319
-1.74932 1.70483 1.10119
-1.71071 1.67874 1.08155
-1.70627 1.68374 1.08099
-1.70803 1.69584 1.08389
-1.72991 1.72631 1.09932
-1.71815 1.72556 1.09485
-1.70628 1.72464 1.0908
-1.67373 1.70505 1.07549
-1.67491 1.71679 1.07965
-1.68908 1.74157 1.09159
-1.67652 1.74095 1.08795
-1.665 1.73949 1.08391
-1.63413 1.71827 1.06821
-1.60996 1.70359 1.05598
-1.60486 1.70889 1.05543
-1.61955 1.73347 1.06654
-1.63351 1.75874 1.07762
-1.72673 1.68487 1.0954
-1.72199 1.69022 1.09483
-1.71045 1.68909 1.09076
-1.6923 1.68153 1.08278
-1.7139 1.71224 1.09831
-1.71525 1.72416 1.10207
-1.70981 1.73009 1.10148
-1.6586 1.6909 1.07309
-1.679 1.72222 1.08941
-1.6798 1.7343 1.09359
-1.68747 1.75274 1.10126
-1.66242 1.73829 1.09021
-1.63817 1.72377 1.07791
-1.62032 1.71557 1.06994
-1.62176 1.7271 1.07371
-1.62968 1.74538 1.08098
-1.6627 1.79059 1.10385
-1.73758 1.69648 1.10917
-1.71964 1.68878 1.10115
-1.70147 1.68129 1.09312
-1.70351 1.69306 1.09608
-1.69818 1.69841 1.09634
-1.71303 1.7228 1.10801
-1.70132 1.72199 1.1035
-1.66273 1.69578 1.08365
-1.67653 1.72115 1.09528
-1.69076 1.74603 1.10694
-1.6788 1.74482 1.10327
-1.65406 1.7306 1.09131
-1.64218 1.72924 1.08764
-1.62421 1.72094 1.08005
-1.61936 1.726 1.07949
-1.63351 1.75076 1.09115
-1.67905 1.80911 1.12247
-1.72909 1.68864 1.11073
-1.72392 1.69419 1.11058
-1.71252 1.69319 1.10604
-1.70116 1.6916 1.10237
-1.68967 1.69037 1.09826
-1.69121 1.70232 1.10165
-1.68543 1.70782 1.10233
-1.65334 1.68792 1.08673
-1.68726 1.73205 1.11035
-1.66881 1.72491 1.10184
-1.65055 1.71778 1.09293
-1.6387 1.71643 1.08924
-1.64003 1.72784 1.09347
-1.62263 1.7195 1.08501
-1.61071 1.71788 1.08173
-1.64412 1.76256 1.10492
-1.72684 1.68729 1.11664
-1.71546 1.68633 1.11209
-1.71707 1.69775 1.11635
-1.69908 1.69036 1.10781
-1.6876 1.68913 1.10369
-1.67615 1.68785 1.09956
-1.67681 1.70014 1.10379
-1.65826 1.69294 1.09567
-1.66553 1.71125 1.10431
-1.65986 1.71678 1.10456
-1.64181 1.70922 1.09603
-1.6496 1.72768 1.10342
-1.63844 1.72638 1.09847
-1.6269 1.72467 1.09476
-1.62843 1.73631 1.09819
-1.64208 1.76124 1.11038
-1.67507 1.80598 1.1341
-1.72416 1.68612 1.12296
-1.71236 1.68534 1.11879
-1.7013 1.68401 1.11423
-1.70345 1.69535 1.11768
-1.69826 1.70082 1.11752
-1.68007 1.6936 1.10894
-1.67432 1.69906 1.10962
-1.67492 1.71135 1.11387
-1.66318 1.71027 1.10972
-1.6509 1.70919 1.10638
-1.63892 1.70828 1.10222
-1.64068 1.72003 1.10525
-1.62929 1.71847 1.1011
-1.63099 1.73022 1.10413
-1.62598 1.73517 1.10399
-1.62689 1.74688 1.10826
-1.76282 1.73422 1.15778
-1.72506 1.70815 1.13661
-1.70708 1.7008 1.12798
-1.68887 1.69366 1.11935
-1.68398 1.69879 1.11921
-1.66529 1.69155 1.11141
-1.67284 1.71007 1.11931
-1.66012 1.70921 1.11636
-1.65488 1.71455 1.11621
-1.64332 1.71349 1.11162
-1.63151 1.71213 1.10785
-1.61346 1.7043 1.09964
-1.62186 1.72227 1.10674
-1.60414 1.71405 1.09855
-1.6439 1.76534 1.12574
-1.69781 1.69324 1.13023
-1.68635 1.69202 1.12604
-1.68088 1.69774 1.12588
-1.68857 1.71639 1.1334
-1.67639 1.71556 1.12961
-1.65775 1.70821 1.12176
-1.63932 1.70088 1.1135
-1.65328 1.72552 1.12592
-1.62234 1.70477 1.10956
-1.63062 1.7226 1.11712
-1.61913 1.72087 1.11334
-1.63293 1.74579 1.12534
-1.69497 1.69189 1.13693
-1.6767 1.68461 1.12862
-1.66515 1.68374 1.12397
-1.67273 1.70219 1.13196
-1.70585 1.74674 1.15624
-1.64972 1.71269 1.12741
-1.63805 1.7115 1.12319
-1.63937 1.72286 1.12754
-1.63395 1.72801 1.1278
-1.62939 1.7328 1.12725
-1.69255 1.6909 1.14235
-1.66818 1.67708 1.1295
-1.67552 1.69525 1.13837
-1.66976 1.70123 1.1382
-1.74242 1.7838 1.18679
-1.73651 1.78958 1.18706
-1.64063 1.70494 1.12953
-1.62257 1.69725 1.12119
-1.62406 1.70868 1.12515
-1.62564 1.72026 1.12869
-1.69682 1.80359 1.1781
-1.69638 1.69598 1.15273
-1.67175 1.68194 1.14064
-1.66632 1.68761 1.14048
-1.67413 1.70576 1.14857
-1.70147 1.75603 1.17297
-1.64468 1.70982 1.13985
-1.62037 1.69579 1.12693
-1.62213 1.70747 1.13008
-1.63586 1.73212 1.14269
-1.69423 1.69466 1.15818
-1.66295 1.6747 1.14145
-1.6769 1.69933 1.15414
-1.67775 1.71128 1.15854
-1.66667 1.72265 1.15822
-1.64813 1.71526 1.15019
-1.63037 1.70786 1.14093
-1.6318 1.71931 1.14492
-1.62727 1.7241 1.14438
-1.70483 1.70628 1.17194
-1.68687 1.69876 1.16347
-1.68139 1.70448 1.1633
-1.70809 1.74199 1.18438
-1.68994 1.74674 1.18117
-1.64629 1.7136 1.1556
-1.62827 1.70596 1.14712
-1.62305 1.71119 1.14697
-1.6308 1.72914 1.15515
-1.68887 1.69221 1.17029
-1.68384 1.69776 1.16972
-1.67835 1.70348 1.16956
-1.72438 1.76011 1.20331
-1.64286 1.71273 1.16221
-1.63125 1.71154 1.15787
-1.62673 1.71634 1.15732
-1.69912 1.70353 1.18497
-1.67444 1.68999 1.17218
-1.68221 1.70808 1.18045
-1.74749 1.78438 1.22617
-1.65364 1.72435 1.1756
-1.62912 1.71016 1.16323
-1.63672 1.72793 1.17193
-1.69691 1.70216 1.19043
-1.68507 1.70115 1.18646
-1.68589 1.71309 1.19096
-1.74475 1.78253 1.23314
-1.65118 1.72324 1.18101
-1.63334 1.71521 1.17282
-1.62838 1.72018 1.17268
-1.70059 1.70712 1.20097
-1.67596 1.69361 1.18805
-1.68368 1.71169 1.19641
-1.73032 1.7929 1.23933
-1.64249 1.71471 1.18343
-1.64374 1.72657 1.18712
-1.63227 1.72552 1.1823
-1.69851 1.70585 1.20602
-1.67361 1.69265 1.19303
-1.68073 1.71075 1.20226
-1.72104 1.78504 1.24156
-1.64565 1.7199 1.19432
-1.62815 1.71215 1.18521
-1.63599 1.73015 1.19321
-1.68876 1.69836 1.20843
-1.68356 1.70379 1.20827
-1.68434 1.7157 1.21283
-1.69904 1.76438 1.23513
