ply
format ascii 1.0
element vertex 553
property float x
property float y
property float z
end_header
-1.43014 -0.968196 0.160735
-1.43343 -0.963338 0.160664
-1.44483 -0.964278 0.16114
-1.43996 -0.953592 0.16052
-1.43487 -0.94322 0.159598
-1.43791 -0.938604 0.159529
-1.44075 -0.934223 0.159771
-1.45198 -0.935265 0.160248
-1.45481 -0.930842 0.160491
-1.45809 -0.907056 0.159364
-1.46134 -0.901846 0.159285
-1.42671 -0.972902 0.164199
-1.44654 -0.979264 0.165255
-1.44157 -0.968763 0.16493
-1.44484 -0.963854 0.165168
-1.43979 -0.953414 0.164838
-1.43469 -0.943032 0.164198
-1.46281 -0.954844 0.165207
-1.44077 -0.933816 0.163448
-1.44361 -0.929439 0.163383
-1.4379 -0.919943 0.162148
-1.45751 -0.926287 0.163816
-1.45205 -0.916258 0.163185
-1.43813 -0.900982 0.161386
-1.44949 -0.901633 0.162178
-1.46968 -0.906957 0.163525
-1.49828 -0.917662 0.16513
-1.39909 -0.959869 0.165899
-1.39391 -0.949711 0.165852
-1.38044 -0.93402 0.164614
-1.3919 -0.934902 0.165132
-1.39521 -0.929883 0.165956
-1.40652 -0.930911 0.166481
-1.40967 -0.92612 0.166712
-1.39596 -0.910665 0.165163
-1.39892 -0.906197 0.164501
-1.40169 -0.901955 0.16414
-1.41284 -0.903084 0.16466
-1.40718 -0.893439 0.163714
-1.41833 -0.894488 0.164531
-1.41277 -0.884624 0.163582
-1.41593 -0.87956 0.163803
-1.5099 -0.917332 0.170023
-1.547 -0.933173 0.172283
-1.39924 -0.959169 0.170439
-1.3857 -0.943692 0.168558
-1.41365 -0.955735 0.17122
-1.40861 -0.945348 0.170843
-1.41182 -0.940563 0.170773
-1.42331 -0.941255 0.171923
-1.42649 -0.936406 0.172156
-1.42117 -0.926368 0.171168
-1.43254 -0.927244 0.17141
-1.41007 -0.906951 0.168615
-1.42125 -0.908066 0.168856
-1.42401 -0.903747 0.168791
-1.42693 -0.899165 0.168722
-1.43825 -0.899857 0.169862
-1.4242 -0.884652 0.16888
-1.41888 -0.874307 0.168195
-1.43035 -0.8747 0.169029
-1.42465 -0.8649 0.16835
-1.44454 -0.870683 0.168894
-1.41571 -0.97005 0.175333
-1.40234 -0.954251 0.174006
-1.40557 -0.949472 0.17424
-1.40032 -0.939353 0.174144
-1.41195 -0.939854 0.175311
-1.40682 -0.929546 0.174602
-1.40147 -0.919519 0.174198
-1.4128 -0.920479 0.174468
-1.40724 -0.910766 0.173468
-1.41858 -0.911656 0.173734
-1.40443 -0.896871 0.171515
-1.43226 -0.908936 0.173334
-1.43518 -0.904328 0.173265
-1.42965 -0.894403 0.17257
-1.42435 -0.883986 0.172467
-1.42735 -0.879135 0.172693
-1.4302 -0.874556 0.172324
-1.43315 -0.869672 0.172849
-1.43598 -0.865088 0.17218
-1.42394 -0.975273 0.17966
-1.41058 -0.959438 0.178595
-1.41382 -0.95463 0.178829
-1.40064 -0.938421 0.17805
-1.42854 -0.950492 0.180568
-1.42345 -0.940131 0.179836
-1.42664 -0.935295 0.179764
-1.43801 -0.936159 0.180356
-1.41577 -0.915528 0.177711
-1.41841 -0.911492 0.177349
-1.4212 -0.907196 0.176984
-1.44084 -0.913632 0.177306
-1.42692 -0.898335 0.175946
-1.4298 -0.893731 0.176179
-1.43297 -0.888591 0.176704
-1.42748 -0.878451 0.17658
-1.42193 -0.868357 0.17645
-1.43329 -0.869 0.176437
-1.43606 -0.864362 0.176965
-1.4076 -0.963247 0.183224
-1.41912 -0.964077 0.183834
-1.43049 -0.965097 0.184446
-1.41718 -0.949104 0.183322
-1.42871 -0.949822 0.183931
-1.43189 -0.944924 0.184779
-1.4351 -0.94006 0.184707
-1.42961 -0.930248 0.183959
-1.43259 -0.925633 0.184195
-1.4185 -0.910759 0.182162
-1.44651 -0.922611 0.183526
-1.44089 -0.91285 0.183089
-1.44391 -0.908285 0.181495
-1.45527 -0.908927 0.182401
-1.4585 -0.903696 0.182936
-1.47005 -0.903973 0.183842
-1.44741 -0.88357 0.182351
-1.4504 -0.878643 0.182579
-1.47019 -0.884589 0.183258
-1.40771 -0.962519 0.187788
-1.40258 -0.952391 0.186713
-1.43063 -0.964391 0.188445
-1.40919 -0.942582 0.186873
-1.41238 -0.937777 0.187105
-1.4154 -0.933232 0.187038
-1.4102 -0.92292 0.186864
-1.41316 -0.918366 0.187097
-1.43272 -0.92493 0.188147
-1.42698 -0.915433 0.187379
-1.42138 -0.905738 0.186306
-1.41573 -0.896084 0.185238
-1.42722 -0.896595 0.185868
-1.42171 -0.886752 0.184198
-1.41622 -0.876627 0.184023
-1.42768 -0.877039 0.18495
-1.44768 -0.882609 0.186278
-1.43345 -0.867559 0.185405
-1.39977 -0.955918 0.191311
-1.3946 -0.945805 0.190516
-1.39765 -0.941316 0.19045
-1.41744 -0.947685 0.191533
-1.41249 -0.93706 0.191337
-1.40719 -0.927018 0.190541
-1.41851 -0.927958 0.191203
-1.42147 -0.923362 0.191741
-1.39933 -0.902535 0.189477
-1.41886 -0.909066 0.190877
-1.42988 -0.910392 0.191244
-1.43267 -0.906061 0.190876
-1.41874 -0.89083 0.189054
-1.40484 -0.875416 0.187827
-1.42494 -0.880926 0.188904
-1.42779 -0.876341 0.188835
-1.42209 -0.866524 0.188339
-1.44211 -0.872067 0.189413
-1.40776 -0.961311 0.19661
-1.41087 -0.956794 0.196239
-1.42256 -0.957323 0.196918
-1.41753 -0.946943 0.196094
-1.42075 -0.942126 0.196023
-1.4073 -0.926314 0.194448
-1.41861 -0.927234 0.195435
-1.42994 -0.928093 0.196425
-1.42439 -0.918333 0.195605
-1.41865 -0.908881 0.194489
-1.44665 -0.920686 0.196374
-1.44117 -0.91066 0.196164
-1.42724 -0.895412 0.194287
-1.4386 -0.896121 0.194666
-1.45013 -0.896495 0.195341
-1.45337 -0.891342 0.194653
-1.44788 -0.881191 0.194137
-1.45908 -0.881953 0.19512
-1.44083 -0.983133 0.203052
-1.43589 -0.972607 0.202826
-1.43075 -0.962413 0.20198
-1.44233 -0.963115 0.202375
-1.44576 -0.957941 0.20261
-1.45735 -0.958536 0.203002
-1.47695 -0.965036 0.204485
-1.47168 -0.954833 0.203954
-1.44126 -0.928455 0.200781
-1.46909 -0.940498 0.203045
-1.4634 -0.93095 0.201897
-1.45798 -0.920905 0.201055
-1.46093 -0.916199 0.201292
-1.46405 -0.91124 0.201217
-1.4502 -0.895759 0.199596
-1.4957 -0.91697 0.203385
-1.49021 -0.907008 0.201605
-1.43272 -0.976776 0.206296
-1.43586 -0.972165 0.206228
-1.43086 -0.961685 0.205976
-1.45915 -0.973169 0.208613
-1.42908 -0.946439 0.205032
-1.41565 -0.930613 0.203363
-1.45205 -0.947928 0.205871
-1.45509 -0.943239 0.206111
-1.45779 -0.939079 0.206049
-1.4355 -0.918512 0.203291
-1.46347 -0.930197 0.206226
-1.44965 -0.914839 0.204255
-1.45262 -0.910192 0.203879
-1.45551 -0.905487 0.20442
-1.46709 -0.905813 0.204833
-1.50411 -0.921714 0.208246
-1.44608 -0.991909 0.212335
-1.43279 -0.976004 0.210932
-1.44422 -0.97702 0.211066
-1.43098 -0.960968 0.209662
-1.4425 -0.961608 0.21103
-1.45407 -0.962218 0.211782
-1.449 -0.951782 0.211196
-1.44375 -0.941682 0.209994
-1.47187 -0.953341 0.212079
-1.4748 -0.948887 0.2117
-1.45237 -0.928546 0.208874
-1.43838 -0.913422 0.207175
-1.46656 -0.924748 0.210172
-1.4442 -0.904106 0.207949
-1.47252 -0.915323 0.20972
-1.43338 -0.883777 0.206462
-1.49568 -0.915722 0.211827
-1.41319 -0.968891 0.212409
-1.45745 -0.992398 0.216863
-1.42778 -0.965063 0.214036
-1.44777 -0.971073 0.215652
-1.45088 -0.966397 0.215895
-1.44582 -0.955929 0.215594
-1.44381 -0.940924 0.214296
-1.4552 -0.941702 0.215073
-1.44961 -0.932209 0.212934
-1.45245 -0.927806 0.212868
-1.45525 -0.923376 0.21311
-1.45823 -0.918695 0.213039
-1.46959 -0.919268 0.214428
-1.46426 -0.909007 0.213509
-1.49276 -0.919746 0.216274
-1.50436 -0.919878 0.217356
-1.43789 -0.985027 0.219594
-1.43285 -0.974808 0.21835
-1.43596 -0.970177 0.218592
-1.4392 -0.965245 0.219449
-1.45908 -0.971433 0.220806
-1.42914 -0.944452 0.217563
-1.44061 -0.945017 0.219285
-1.43538 -0.934986 0.217423
-1.43823 -0.930624 0.217358
-1.45787 -0.937105 0.218102
-1.44398 -0.921963 0.215697
-1.46358 -0.928256 0.21766
-1.45799 -0.918486 0.216732
-1.45268 -0.908239 0.215797
-1.46402 -0.9088 0.217203
-1.50979 -0.92948 0.221752
-1.52126 -0.929821 0.222861
-1.41335 -0.967392 0.220656
-1.44935 -0.985231 0.224767
-1.44428 -0.974986 0.223808
-1.41466 -0.947599 0.220474
-1.46755 -0.975877 0.226698
-1.4458 -0.954683 0.223628
-1.43238 -0.938813 0.222073
-1.44373 -0.939629 0.223208
-1.4633 -0.94608 0.224938
-1.44948 -0.930882 0.222461
-1.45235 -0.926514 0.22178
-1.47205 -0.932846 0.222559
-1.44979 -0.912156 0.219837
-1.47801 -0.923332 0.22304
-1.4727 -0.91305 0.222077
-1.48423 -0.91325 0.22351
-1.51282 -0.923834 0.2261
-1.45444 -0.994726 0.230123
-1.43314 -0.973004 0.226995
-1.43625 -0.968373 0.227237
-1.42298 -0.952381 0.225641
-1.45107 -0.964085 0.228629
-1.44597 -0.953608 0.228567
-1.45737 -0.95442 0.229421
-1.44378 -0.938872 0.227199
-1.44679 -0.934208 0.227438
-1.48315 -0.951382 0.230742
-1.43542 -0.915247 0.22456
-1.47204 -0.932026 0.22753
-1.44982 -0.911386 0.224113
-1.46962 -0.917279 0.226167
-1.46438 -0.906712 0.226101
-1.49273 -0.917696 0.228771
-1.40532 -0.959901 0.229482
-1.4002 -0.949799 0.22817
-1.40363 -0.944808 0.227794
-1.40663 -0.940251 0.228332
-1.42638 -0.946476 0.230452
-1.43789 -0.947098 0.231632
-1.43274 -0.936715 0.231226
-1.42177 -0.97034 0.235974
-1.40017 -0.94897 0.233301
-1.41151 -0.950045 0.233901
-1.41495 -0.945035 0.233219
-1.40981 -0.934658 0.233091
-1.42115 -0.935622 0.233689
-1.41341 -0.964189 0.23928
-1.40833 -0.95409 0.237612
-1.4117 -0.949011 0.238146
-1.41478 -0.944486 0.237775
-1.40975 -0.934211 0.236109
-1.41286 -0.92936 0.236944
-1.41362 -0.963166 0.243242
-1.41655 -0.958867 0.243179
-1.39506 -0.937383 0.240061
-1.39825 -0.932639 0.239991
-1.41815 -0.938616 0.242251
-1.41292 -0.928617 0.240563
-1.40512 -0.957308 0.245871
-1.39997 -0.947201 0.244767
-1.40334 -0.942171 0.244996
-1.41484 -0.942946 0.24566
-1.41784 -0.938349 0.246201
-1.42934 -0.939002 0.247168
-1.39691 -0.950907 0.249054
-1.39208 -0.940334 0.247919
-1.38667 -0.93053 0.247095
-1.40652 -0.936585 0.249448
-1.40973 -0.931826 0.249075
-1.4293 -0.938177 0.251742
-1.50049 -1.0278 0.266163
-1.41338 -0.961348 0.254835
-1.40335 -0.940599 0.253133
-1.39812 -0.930561 0.251983
-1.42612 -0.942256 0.25547
-1.42936 -0.937432 0.255093
-1.41724 -0.980997 1.04861
-1.42367 -0.925077 1.0334
-1.42656 -0.920377 1.03363
-1.4252 -0.906795 1.02832
-1.41907 -0.88463 1.0178
-1.42197 -0.880042 1.01773
-1.43232 -0.879684 1.02282
-1.43684 -0.994111 1.06791
-1.42554 -0.979834 1.05806
-1.44311 -0.98543 1.06747
-1.43187 -0.97132 1.05731
-1.42056 -0.957285 1.04716
-1.43819 -0.962408 1.05687
-1.45607 -0.966807 1.06689
-1.46652 -0.96691 1.07171
-1.43326 -0.937881 1.04749
-1.45098 -0.942413 1.05751
-1.45424 -0.937461 1.05743
-1.44264 -0.923336 1.04758
-1.46003 -0.928576 1.0573
-1.44112 -0.909946 1.04225
-1.45868 -0.915199 1.05166
-1.4469 -0.901234 1.04182
-1.46482 -0.905857 1.05121
-1.46056 -0.895927 1.04655
-1.44847 -0.882008 1.03701
-1.4354 -0.991883 1.07226
-1.45263 -0.997627 1.08204
-1.41991 -0.968726 1.05709
-1.44438 -0.978964 1.07208
-1.43329 -0.964657 1.06187
-1.44369 -0.964869 1.06671
-1.44685 -0.960202 1.06665
-1.45049 -0.955104 1.06626
-1.44636 -0.94528 1.06158
-1.47139 -0.954495 1.07656
-1.44526 -0.930834 1.05684
-1.46281 -0.935832 1.0666
-1.45102 -0.922001 1.05671
-1.46874 -0.926992 1.06615
-1.44949 -0.908592 1.05135
-1.47462 -0.918116 1.06571
-1.4704 -0.908494 1.06072
-1.46613 -0.89891 1.05574
-1.47652 -0.898718 1.06058
-1.4407 -0.995475 1.08125
-1.41511 -0.971367 1.06144
-1.43216 -0.977009 1.07156
-1.43518 -0.972635 1.0715
-1.43851 -0.968097 1.07112
-1.44154 -0.963344 1.07136
-1.45936 -0.968055 1.08116
-1.44819 -0.953493 1.07122
-1.43694 -0.939017 1.06127
-1.45492 -0.943698 1.07076
-1.4361 -0.924835 1.05589
-1.45363 -0.929487 1.066
-1.46382 -0.930085 1.07056
-1.46673 -0.925257 1.0708
-1.43998 -0.902516 1.051
-1.4726 -0.916394 1.07035
-1.46083 -0.902463 1.06042
-1.46395 -0.897481 1.06034
-1.46707 -0.892487 1.06027
-1.42445 -0.983759 1.07601
-1.4491 -0.994268 1.09051
-1.42353 -0.969896 1.07092
-1.44805 -0.980534 1.08543
-1.42952 -0.96119 1.0708
-1.43252 -0.956465 1.07104
-1.44307 -0.956381 1.07592
-1.43913 -0.946674 1.07089
-1.45696 -0.950914 1.08104
-1.46023 -0.946306 1.08066
-1.42685 -0.918037 1.05581
-1.43732 -0.918208 1.06039
-1.45482 -0.92315 1.07023
-1.45017 -0.914326 1.06522
-1.45301 -0.9099 1.06515
-1.44863 -0.900603 1.06013
-1.47359 -0.909552 1.07523
-1.47706 -0.904357 1.07484
-1.48005 -0.899224 1.07507
-1.45818 -1.00622 1.10586
-1.40429 -0.962255 1.06593
-1.43603 -0.977968 1.08518
-1.48228 -1.00289 1.11468
-1.47102 -0.988302 1.10497
-1.46705 -0.978727 1.09992
-1.47047 -0.973354 1.10016
-1.45179 -0.954184 1.08546
-1.42607 -0.930242 1.06546
-1.45113 -0.939181 1.08064
-1.43218 -0.920653 1.06563
-1.46439 -0.93509 1.08517
-1.4458 -0.916589 1.06955
-1.46331 -0.921443 1.07944
-1.44427 -0.903238 1.06414
-1.46165 -0.907912 1.07433
-1.45021 -0.893534 1.0643
-1.45284 -0.889011 1.06454
-1.44958 -0.998641 1.10558
-1.43821 -0.984683 1.09551
-1.46287 -0.995022 1.11015
-1.46595 -0.990556 1.11008
-1.48356 -0.99548 1.12002
-1.46552 -0.97647 1.10431
-1.45449 -0.961535 1.09455
-1.47937 -0.970745 1.10979
-1.47548 -0.960964 1.10471
-1.47833 -0.955989 1.10527
-1.48875 -0.9559 1.11021
-1.46998 -0.93746 1.09482
-1.45827 -0.923683 1.08474
-1.46846 -0.923855 1.08968
-1.46414 -0.914872 1.0843
-1.4745 -0.914718 1.08923
-1.44098 -0.887014 1.06386
-1.42929 -0.873037 1.05379
-1.48329 -1.02141 1.13511
-1.45792 -0.997342 1.11494
-1.47527 -1.00299 1.12461
-1.45689 -0.983954 1.10947
-1.48164 -0.993712 1.12448
-1.47072 -0.97869 1.11466
-1.43789 -0.950065 1.08947
-1.47748 -0.968642 1.11452
-1.47356 -0.959246 1.10911
-1.44771 -0.935308 1.08925
-1.4582 -0.935408 1.0939
-1.44638 -0.921541 1.08409
-1.47097 -0.931294 1.0991
-1.45938 -0.917675 1.08868
-1.49171 -0.931327 1.10869
-1.45774 -0.903825 1.08383
-1.46103 -0.89895 1.08345
-1.44188 -0.880304 1.06861
-1.46 -1.00528 1.12414
-1.45599 -0.995938 1.11903
-1.45907 -0.991492 1.11897
-1.45484 -0.982093 1.11417
-1.44387 -0.967868 1.1037
-1.46144 -0.972414 1.11403
-1.50784 -0.995914 1.14456
-1.47537 -0.96717 1.11893
-1.45702 -0.947983 1.10372
-1.47478 -0.952767 1.11343
-1.46353 -0.938758 1.10296
-1.46646 -0.933925 1.1032
-1.48394 -0.938705 1.11322
-1.46477 -0.92062 1.09802
-1.48226 -0.925321 1.10804
-1.4853 -0.920532 1.10797
-1.4472 -0.883115 1.07818
-1.41175 -0.964426 1.09302
-1.40761 -0.955264 1.08789
-1.40343 -0.946138 1.08276
-1.40653 -0.941596 1.0827
-1.43835 -0.955805 1.1032
-1.44885 -0.955651 1.10819
-1.50261 -0.983822 1.14359
-1.46252 -0.950352 1.11343
-1.47305 -0.950043 1.11842
-1.50501 -0.96419 1.13862
-1.4644 -0.931765 1.10815
-1.47487 -0.932116 1.11253
-1.46317 -0.918421 1.10234
-1.51721 -0.945603 1.13802
-1.44577 -0.880718 1.0824
-1.41667 -0.967702 1.10269
-1.39831 -0.948855 1.08736
-1.40143 -0.944329 1.08729
-1.40467 -0.939898 1.08692
-1.4291 -0.949564 1.10243
-1.52575 -1.00641 1.1685
-1.48973 -1.02312 1.1639
-1.41467 -0.965487 1.10758
-1.41749 -0.961419 1.10752
-1.40654 -0.947324 1.09693
-1.40266 -0.93809 1.09145
-1.42723 -0.94748 1.10701
-1.53827 -1.0134 1.1836
-1.43824 -0.987235 1.13246
-1.41295 -0.963481 1.11185
-1.40869 -0.954238 1.10696
-1.4118 -0.950039 1.10659
-1.40796 -0.940443 1.10139
-1.43233 -0.950036 1.11703
-1.4293 -0.979853 1.13227
-1.41108 -0.961363 1.11643
-1.40697 -0.952242 1.11121
-1.41044 -0.947183 1.11113
-1.42032 -0.947889 1.11623
-1.42346 -0.942933 1.11646
-1.49068 -1.02151 1.18354
-1.40904 -0.959131 1.1213
-1.40493 -0.950028 1.11605
-1.4153 -0.950363 1.12086
-1.41842 -0.945783 1.12079
-1.44308 -0.955127 1.13626
-1.42141 -0.966728 1.13595
-1.41026 -0.952809 1.12548
-1.42048 -0.953011 1.13062
-1.43071 -0.953157 1.13575
-1.5052 -0.995465 1.18769
-1.41963 -0.964683 1.14024
-1.41558 -0.955204 1.13525
-1.41162 -0.946231 1.12966
-1.42893 -0.950764 1.14034
-1.52485 -1.00681 1.20817
-1.42453 -0.967933 1.14977
-1.42771 -0.963325 1.1497
-1.40964 -0.944826 1.13361
-1.42694 -0.949351 1.14433
-1.45847 -0.963171 1.16554
-1.4226 -0.965391 1.15468
-1.41855 -0.956286 1.14935
-1.40772 -0.942332 1.13844
-1.42497 -0.947203 1.14891
-1.45663 -0.960726 1.1702
