ply
format ascii 1.0
comment created by 3d_to_ply
element vertex 50
property float32 x
property float32 y
property float32 z
property uint8 red
property uint8 green
property uint8 blue
end_header
-7.000000 -20.660300 -5.000000 255 255 255
-9.500000 -16.330100 -5.000000 255 255 255
-12.000000 -12.000000 -5.000000 255 255 255
-14.500000 -7.669870 -5.000000 255 255 255
-17.000000 -3.339750 -5.000000 255 255 255
-7.000000 -20.660300 -10.000000 255 255 255
-9.500000 -16.330100 -10.000000 255 255 255
-12.000000 -12.000000 -10.000000 255 255 255
-14.500000 -7.669870 -10.000000 255 255 255
-17.000000 -3.339750 -10.000000 255 255 255
-7.000000 -20.660300 -15.000000 255 255 255
-9.500000 -16.330100 -15.000000 255 255 255
-12.000000 -12.000000 -15.000000 255 255 255
-14.500000 -7.669870 -15.000000 255 255 255
-17.000000 -3.339750 -15.000000 255 255 255
-7.000000 -20.660300 -20.000000 255 255 255
-9.500000 -16.330100 -20.000000 255 255 255
-12.000000 -12.000000 -20.000000 255 255 255
-14.500000 -7.669870 -20.000000 255 255 255
-17.000000 -3.339750 -20.000000 255 255 255
-7.000000 -20.660300 -25.000000 255 255 255
-9.500000 -16.330100 -25.000000 255 255 255
-12.000000 -12.000000 -25.000000 255 255 255
-14.500000 -7.669870 -25.000000 255 255 255
-17.000000 -3.339750 -25.000000 255 255 255
-10.000000 -18.928200 -7.000000 255 255 255
-12.000000 -15.464100 -7.000000 255 255 255
-14.000000 -12.000000 -7.000000 255 255 255
-16.000000 -8.535900 -7.000000 255 255 255
-18.000000 -5.071800 -7.000000 255 255 255
-10.000000 -18.928200 -11.000000 255 255 255
-12.000000 -15.464100 -11.000000 255 255 255
-14.000000 -12.000000 -11.000000 255 255 255
-16.000000 -8.535900 -11.000000 255 255 255
-18.000000 -5.071800 -11.000000 255 255 255
-10.000000 -18.928200 -15.000000 255 255 255
-12.000000 -15.464100 -15.000000 255 255 255
-14.000000 -12.000000 -15.000000 255 255 255
-16.000000 -8.535900 -15.000000 255 255 255
-18.000000 -5.071800 -15.000000 255 255 255
-10.000000 -18.928200 -19.000000 255 255 255
-12.000000 -15.464100 -19.000000 255 255 255
-14.000000 -12.000000 -19.000000 255 255 255
-16.000000 -8.535900 -19.000000 255 255 255
-18.000000 -5.071800 -19.000000 255 255 255
-10.000000 -18.928200 -23.000000 255 255 255
-12.000000 -15.464100 -23.000000 255 255 255
-14.000000 -12.000000 -23.000000 255 255 255
-16.000000 -8.535900 -23.000000 255 255 255
-18.000000 -5.071800 -23.000000 255 255 255
