ply
format ascii 1.0
comment created by 3d_to_ply
element vertex 125
property float32 x
property float32 y
property float32 z
property uint8 red
property uint8 green
property uint8 blue
end_header
-3.660254 -13.660254 -5.000000 255 255 255
-3.660254 -13.660254 0.000000 255 255 255
-3.660254 -13.660254 5.000000 255 255 255
-3.660254 -13.660254 10.000000 255 255 255
-3.660254 -13.660254 15.000000 255 255 255
-6.160254 -9.330127 -5.000000 255 255 255
-6.160254 -9.330127 0.000000 255 255 255
-6.160254 -9.330127 5.000000 255 255 255
-6.160254 -9.330127 10.000000 255 255 255
-6.160254 -9.330127 15.000000 255 255 255
-8.660254 -5.000000 -5.000000 255 255 255
-8.660254 -5.000000 0.000000 255 255 255
-8.660254 -5.000000 5.000000 255 255 255
-8.660254 -5.000000 10.000000 255 255 255
-8.660254 -5.000000 15.000000 255 255 255
-11.160254 -0.669873 -5.000000 255 255 255
-11.160254 -0.669873 0.000000 255 255 255
-11.160254 -0.669873 5.000000 255 255 255
-11.160254 -0.669873 10.000000 255 255 255
-11.160254 -0.669873 15.000000 255 255 255
-13.660254 3.660254 -5.000000 255 255 255
-13.660254 3.660254 0.000000 255 255 255
-13.660254 3.660254 5.000000 255 255 255
-13.660254 3.660254 10.000000 255 255 255
-13.660254 3.660254 15.000000 255 255 255
0.669873 -11.160254 -5.000000 255 255 255
0.669873 -11.160254 0.000000 255 255 255
0.669873 -11.160254 5.000000 255 255 255
0.669873 -11.160254 10.000000 255 255 255
0.669873 -11.160254 15.000000 255 255 255
-1.830127 -6.830127 -5.000000 255 255 255
-1.830127 -6.830127 0.000000 255 255 255
-1.830127 -6.830127 5.000000 255 255 255
-1.830127 -6.830127 10.000000 255 255 255
-1.830127 -6.830127 15.000000 255 255 255
-4.330127 -2.500000 -5.000000 255 255 255
-4.330127 -2.500000 0.000000 255 255 255
-4.330127 -2.500000 5.000000 255 255 255
-4.330127 -2.500000 10.000000 255 255 255
-4.330127 -2.500000 15.000000 255 255 255
-6.830127 1.830127 -5.000000 255 255 255
-6.830127 1.830127 0.000000 255 255 255
-6.830127 1.830127 5.000000 255 255 255
-6.830127 1.830127 10.000000 255 255 255
-6.830127 1.830127 15.000000 255 255 255
-9.330127 6.160254 -5.000000 255 255 255
-9.330127 6.160254 0.000000 255 255 255
-9.330127 6.160254 5.000000 255 255 255
-9.330127 6.160254 10.000000 255 255 255
-9.330127 6.160254 15.000000 255 255 255
5.000000 -8.660254 -5.000000 255 255 255
5.000000 -8.660254 0.000000 255 255 255
5.000000 -8.660254 5.000000 255 255 255
5.000000 -8.660254 10.000000 255 255 255
5.000000 -8.660254 15.000000 255 255 255
2.500000 -4.330127 -5.000000 255 255 255
2.500000 -4.330127 0.000000 255 255 255
2.500000 -4.330127 5.000000 255 255 255
2.500000 -4.330127 10.000000 255 255 255
2.500000 -4.330127 15.000000 255 255 255
0.000000 0.000000 -5.000000 255 255 255
0.000000 0.000000 0.000000 255 255 255
0.000000 0.000000 5.000000 255 255 255
0.000000 0.000000 10.000000 255 255 255
0.000000 0.000000 15.000000 255 255 255
-2.500000 4.330127 -5.000000 255 255 255
-2.500000 4.330127 0.000000 255 255 255
-2.500000 4.330127 5.000000 255 255 255
-2.500000 4.330127 10.000000 255 255 255
-2.500000 4.330127 15.000000 255 255 255
-5.000000 8.660254 -5.000000 255 255 255
-5.000000 8.660254 0.000000 255 255 255
-5.000000 8.660254 5.000000 255 255 255
-5.000000 8.660254 10.000000 255 255 255
-5.000000 8.660254 15.000000 255 255 255
9.330127 -6.160254 -5.000000 255 255 255
9.330127 -6.160254 0.000000 255 255 255
9.330127 -6.160254 5.000000 255 255 255
9.330127 -6.160254 10.000000 255 255 255
9.330127 -6.160254 15.000000 255 255 255
6.830127 -1.830127 -5.000000 255 255 255
6.830127 -1.830127 0.000000 255 255 255
6.830127 -1.830127 5.000000 255 255 255
6.830127 -1.830127 10.000000 255 255 255
6.830127 -1.830127 15.000000 255 255 255
4.330127 2.500000 -5.000000 255 255 255
4.330127 2.500000 0.000000 255 255 255
4.330127 2.500000 5.000000 255 255 255
4.330127 2.500000 10.000000 255 255 255
4.330127 2.500000 15.000000 255 255 255
1.830127 6.830127 -5.000000 255 255 255
1.830127 6.830127 0.000000 255 255 255
1.830127 6.830127 5.000000 255 255 255
1.830127 6.830127 10.000000 255 255 255
1.830127 6.830127 15.000000 255 255 255
-0.669873 11.160254 -5.000000 255 255 255
-0.669873 11.160254 0.000000 255 255 255
-0.669873 11.160254 5.000000 255 255 255
-0.669873 11.160254 10.000000 255 255 255
-0.669873 11.160254 15.000000 255 255 255
13.660254 -3.660254 -5.000000 255 255 255
13.660254 -3.660254 0.000000 255 255 255
13.660254 -3.660254 5.000000 255 255 255
13.660254 -3.660254 10.000000 255 255 255
13.660254 -3.660254 15.000000 255 255 255
11.160254 0.669873 -5.000000 255 255 255
11.160254 0.669873 0.000000 255 255 255
11.160254 0.669873 5.000000 255 255 255
11.160254 0.669873 10.000000 255 255 255
11.160254 0.669873 15.000000 255 255 255
8.660254 5.000000 -5.000000 255 255 255
8.660254 5.000000 0.000000 255 255 255
8.660254 5.000000 5.000000 255 255 255
8.660254 5.000000 10.000000 255 255 255
8.660254 5.000000 15.000000 255 255 255
6.160254 9.330127 -5.000000 255 255 255
6.160254 9.330127 0.000000 255 255 255
6.160254 9.330127 5.000000 255 255 255
6.160254 9.330127 10.000000 255 255 255
6.160254 9.330127 15.000000 255 255 255
3.660254 13.660254 -5.000000 255 255 255
3.660254 13.660254 0.000000 255 255 255
3.660254 13.660254 5.000000 255 255 255
3.660254 13.660254 10.000000 255 255 255
3.660254 13.660254 15.000000 255 255 255
