ply
format ascii 1.0
element vertex 1290
property float x
property float y
property float z
end_header
-35.9092 -138.617 -99.664
-36.2503 -135.527 -80.8773
-35.4332 -136.737 -61.8757
-37.8055 -135.838 -38.9195
-35.3262 -134.643 -19.7739
-36.3765 -138.542 -0.586417
-35.5481 -136.824 20.0776
-36.4483 -135.631 38.5712
-34.5052 -134.388 57.9131
-36.132 -137.587 80.7314
-35.5579 -136.962 100.35
-45.5513 -120.03 -100.152
-47.5146 -121.122 -77.7513
-48.8802 -117.799 -59.6068
-45.6347 -119.637 -40.9201
-47.0556 -118.641 -18.8681
-46.1409 -119.735 -1.96468
-47.6364 -119.72 20.4458
-48.7684 -119.284 39.9399
-45.2696 -118.636 58.9812
-47.7646 -120.337 80.7019
-44.8706 -119.469 99.7198
-59.0052 -102.441 -99.0002
-57.1933 -100.862 -80.4139
-57.0104 -100.39 -59.6314
-55.2548 -103.194 -40.6827
-56.8445 -100.844 -20.0131
-55.8442 -101.051 0.875482
-56.2661 -101.495 19.9124
-55.2512 -103.022 40.5731
-55.5163 -101.26 59.9993
-56.9579 -101.574 81.7375
-57.2814 -102.875 100.13
-67.1825 -83.6589 -99.1008
-65.7479 -85.069 -79.4533
-64.9272 -85.501 -60.5271
-67.3548 -84.1039 -40.1015
-66.4524 -84.5115 -19.3078
-66.4324 -86.1638 0.103466
-66.3792 -85.2467 20.2205
-67.2588 -85.2168 40.6425
-67.328 -84.8329 60.3765
-65.3512 -84.5387 79.6481
-67.8709 -84.1715 101.189
-76.544 -66.2437 -99.3984
-75.8151 -67.6532 -80.3075
-75.6837 -68.6911 -58.9123
-78.4844 -68.1544 -41.0447
-77.4166 -67.5382 -19.7138
-77.5768 -68.7224 1.49275
-78.437 -67.2689 21.0721
-76.4831 -67.4808 37.4112
-77.0698 -66.9579 59.0371
-76.4946 -66.7225 79.1578
-79.2031 -67.6224 100.024
-86.0402 -51.2778 -97.3711
-87.8525 -49.6973 -81.0225
-86.3997 -49.9343 -60.3305
-86.0808 -49.2177 -39.0752
-85.4781 -49.6672 -19.5184
-84.9917 -50.0233 0.577175
-86.9669 -49.9613 18.9223
-84.6961 -49.7858 39.8952
-86.1278 -50.0933 59.3669
-85.5555 -49.9591 81.3043
-88.5205 -50.7564 99.5235
-97.0568 -32.8719 -98.5731
-96.374 -33.3156 -80.655
-95.9806 -32.0205 -61.1442
-95.3278 -34.5672 -39.8489
-97.6347 -33.9441 -20.0724
-96.6505 -32.8769 1.41662
-96.4258 -32.6901 19.8122
-95.6644 -31.5968 38.7241
-96.7545 -32.9963 59.391
-96.2891 -31.3663 79.2189
-97.1534 -29.7423 99.1258
-106.703 -15.1273 -98.9964
-106.591 -13.7757 -81.5326
-105.537 -14.6656 -59.4231
-106.695 -16.3284 -39.6229
-103.944 -15.9364 -19.6257
-107.877 -14.8987 -0.505641
-104.976 -15.8967 20.664
-103.477 -15.2584 39.2875
-105.799 -16.8761 59.8071
-106.396 -14.0271 78.1944
-105.737 -15.0982 100.305
-117.518 3.03416 -98.2762
-117.027 3.0219 -79.8725
-115.578 3.11012 -60.0359
-117.038 1.50658 -41.169
-118.091 0.0741666 -20.4089
-116.955 1.03462 0.00278458
-117.184 0.494827 19.819
-116.484 1.07324 40.2243
-117.901 0.452583 61.1132
-115.927 1.57057 78.0713
-116.196 1.44493 100.019
-128.669 20.1661 -97.7473
-127.338 19.0029 -80.3905
-127.218 20.5338 -61.5632
-129.036 19.2042 -39.5896
-127.889 19.5875 -19.6487
-127.668 18.772 0.033278
-126.581 17.7173 21.919
-127.44 18.9732 40.2213
-126.246 19.8835 61.3358
-126.14 21.0545 81.4024
-125.612 19.0151 100.661
-137.669 36.3423 -99.2682
-136.515 36.9104 -80.5927
-136.61 37.8054 -60.2408
-136.073 35.8438 -41.0737
-137.473 35.9581 -18.9242
-137.857 35.9336 -0.62167
-136.176 36.7371 20.3227
-136.433 36.6185 39.4836
-135.66 37.799 59.7881
-136.185 36.8637 79.5456
-137.247 36.7247 99.0967
-18.8105 -126.715 -100.909
-18.998 -127.366 -82.165
-18.4329 -125.028 -59.5867
-20.4825 -127.723 -38.2969
-19.2626 -125.727 -21.1429
-18.3889 -125.189 -0.0535995
-20.6546 -126.653 21.9211
-19.0695 -128.046 39.1867
-19.707 -126.696 61.8917
-17.8445 -126.427 80.5992
-18.9955 -127.787 99.8637
-27.6318 -109.04 -100.282
-28.6912 -109.315 -78.6129
-29.0837 -109.339 -60.4766
-29.9393 -108.143 -41.9253
-27.7867 -109.845 -19.6021
-29.9959 -109.282 -0.789352
-31.3742 -109.863 19.0543
-28.2886 -109.479 40.2489
-28.8969 -110.52 59.6971
-29.063 -108.65 80.8314
-29.8153 -107.854 101.324
-39.8939 -92.4767 -98.4124
-36.6906 -92.9599 -80.0971
-38.5016 -91.4342 -60.1936
-38.7346 -91.7535 -39.782
-40.8627 -92.1974 -20.6801
-40.2954 -93.3796 0.91993
-38.2725 -91.5954 19.5938
-39.1242 -91.6734 38.3659
-40.6644 -90.793 59.6791
-41.2291 -91.8464 79.0817
-38.0808 -90.8466 102.678
-49.4814 -75.0494 -99.0518
-48.8648 -74.8261 -79.8107
-49.2248 -75.4247 -58.8756
-49.6709 -75.8823 -40.64
-48.4316 -75.3149 -19.7782
-47.584 -74.9412 0.0296972
-47.9046 -73.775 21.0038
-49.1077 -74.7338 39.7461
-49.5729 -76.3144 58.4894
-49.7397 -72.9978 80.3468
-49.1223 -76.4678 100.518
-58.2411 -58.1668 -98.6885
-60.3702 -57.803 -80.4601
-59.8903 -58.8261 -60.574
-59.3123 -57.988 -39.0084
-59.3323 -57.0235 -19.744
-58.4183 -55.9447 -1.67218
-58.2942 -57.48 19.3427
-60.6263 -54.9947 39.786
-58.8669 -56.3898 58.3778
-58.8607 -57.5835 80.1737
-58.8973 -57.425 100.341
-68.782 -40.3467 -100.264
-68.6506 -41.1229 -79.0577
-70.5126 -39.9263 -58.7461
-71.1594 -42.4786 -38.47
-69.1643 -41.2354 -20.8172
-69.2657 -39.7427 -0.0762676
-68.6496 -40.2847 20.0148
-69.0983 -40.4912 41.3748
-67.9365 -40.1175 62.1364
-70.6418 -40.0961 80.8714
-68.9181 -40.8564 101.573
-79.3667 -23.8032 -100.99
-79.4146 -21.9731 -79.5689
-79.0765 -22.5529 -58.921
-78.697 -23.2203 -40.697
-80.3105 -24.2132 -19.7914
-79.6681 -22.2025 0.743914
-80.7333 -21.7357 20.7559
-78.8274 -23.4718 40.8122
-78.3128 -21.469 61.1749
-79.6609 -21.2484 79.3028
-79.6077 -21.3549 99.2063
-89.4717 -5.61532 -100.484
-89.1931 -6.11703 -81.5378
-89.9866 -6.74833 -59.8089
-88.3099 -6.67366 -40.381
-90.1648 -5.94926 -17.8741
-90.1197 -5.83706 -0.972639
-89.9046 -5.7923 19.2645
-91.2039 -5.47463 39.7619
-90.9328 -6.53607 60.3589
-88.5156 -4.50566 79.1899
-89.8868 -6.74592 99.9621
-97.5088 13.5794 -98.368
-97.9626 11.2322 -77.9469
-99.19 11.481 -61.7071
-100.301 13.0852 -39.3693
-97.4408 12.8401 -19.8305
-100.038 13.0522 -0.19401
-100.566 12.1431 20.3286
-98.8642 11.7134 40.2751
-100.2 13.305 59.2614
-99.2788 10.707 79.6126
-98.0686 10.5664 98.8502
-110.313 27.4661 -100.478
-108.911 28.5019 -78.3303
-110.514 28.2876 -60.0084
-110.007 28.8219 -38.9617
-108.971 29.7322 -21.2814
-108.735 30.1129 -1.62396
-106.687 29.3522 19.5651
-109.195 28.2826 39.4092
-109.571 28.3739 60.222
-109.904 29.1955 79.6099
-110.507 30.2294 101.825
-120.412 45.7523 -100.98
-118.026 47.3288 -82.0402
-119.929 46.4953 -60.7788
-119.426 46.0251 -38.7038
-119.892 46.5331 -20.3051
-119.143 45.0522 0.867064
-119.368 45.6902 20.1483
-122.127 47.1701 40.9436
-120.912 45.9479 59.1275
-118.883 47.0385 79.046
-119.852 45.9889 100.534
-1.68058 -117.413 -100.861
-2.08792 -117.954 -79.8045
-1.14254 -117.144 -61.013
-1.55582 -115.779 -41.3526
-1.804 -115.318 -21.0277
-2.59009 -116.672 -0.916015
-2.16718 -116.603 21.0045
-3.75327 -119.242 39.9785
-2.46637 -117.697 57.4428
-2.05319 -114.392 81.4211
-2.76314 -116.973 101.686
-12.3929 -100.678 -100.133
-12.8819 -100.043 -80.4975
-11.1618 -98.192 -59.6586
-13.3323 -100.208 -38.571
-12.0871 -97.6016 -18.8322
-12.272 -97.7692 0.529361
-12.4999 -98.3056 20.3659
-11.4008 -98.5268 38.1985
-14.3403 -98.5713 60.2406
-11.6472 -99.852 80.2491
-12.4409 -100.109 99.1915
-22.1087 -80.7425 -100.463
-23.883 -82.782 -78.5737
-22.3108 -81.9501 -61.0565
-20.0861 -82.2463 -41.4316
-22.1928 -80.8784 -19.0062
-24.8942 -81.6114 -0.213831
-22.3115 -82.1564 19.5223
-20.7936 -81.4354 42.17
-20.9079 -82.2255 60.4613
-21.6112 -81.1656 79.3636
-20.2443 -81.0629 98.6963
-30.8765 -63.4484 -99.1165
-30.964 -63.5978 -79.8748
-34.8961 -65.3467 -60.5599
-33.4117 -64.9516 -41.6073
-32.0209 -66.8341 -19.804
-33.3446 -66.1278 1.44577
-31.9598 -64.9125 20.3276
-30.9856 -62.8641 41.8119
-33.8953 -63.4078 58.4107
-32.2734 -64.4669 80.1423
-32.0534 -65.8505 100.435
-41.1142 -45.7397 -100.108
-41.4504 -46.3855 -81.4478
-41.1765 -47.0858 -59.7678
-42.289 -46.6698 -39.2052
-39.9498 -48.4346 -20.8028
-41.6621 -46.8052 -0.767322
-43.0643 -46.6201 20.79
-44.226 -47.07 39.5597
-43.4603 -47.3629 59.051
-41.5111 -46.7516 79.5854
-39.1049 -47.4036 100.625
-50.4216 -30.0559 -100.19
-49.6608 -31.0852 -79.6759
-52.1628 -30.8068 -59.9565
-51.8852 -29.8171 -40.7018
-52.593 -30.7611 -20.062
-52.1819 -29.3865 2.14995
-53.4934 -30.3156 19.3235
-50.9424 -30.4066 40.3036
-48.6671 -30.0691 58.8783
-52.1345 -28.2991 80.4036
-52.3633 -30.3024 100.54
-63.7341 -13.3028 -99.3351
-58.4274 -12.7026 -78.9044
-62.1558 -11.8508 -60.3735
-63.2454 -13.8623 -42.2838
-60.2394 -12.1449 -18.6498
-61.8062 -14.0238 0.731915
-61.0114 -13.8717 20.3571
-63.7758 -11.8741 40.6627
-62.4215 -12.7986 59.4332
-61.7872 -12.4588 80.5485
-64.4268 -12.3358 100.351
-72.3209 4.33705 -100.319
-72.3646 5.07458 -79.1837
-71.7869 3.86114 -60.0527
-71.2217 4.69025 -39.2638
-72.1038 4.43402 -20.3623
-72.4836 6.4599 -1.27724
-73.1978 3.07179 16.5177
-72.4584 5.08457 41.1358
-71.2979 4.19291 59.5534
-72.8926 2.59359 79.4611
-71.9337 7.794 98.8381
-80.5571 22.5207 -99.7721
-82.524 22.7166 -81.013
-81.8946 22.09 -60.4543
-81.6691 20.4281 -40.4377
-84.0352 21.5888 -19.4721
-81.7947 22.1995 1.18735
-81.9732 21.4467 19.9
-83.4241 22.2989 40.0594
-82.4734 21.4848 58.9459
-81.4435 22.854 80.0671
-81.8671 22.0207 100.489
-92.4141 39.8619 -100.755
-90.5479 40.0589 -80.1159
-91.9766 39.7226 -58.7085
-91.095 37.6587 -40.9428
-93.934 38.5507 -20.2135
-91.683 39.6742 0.0613487
-91.8564 38.6284 19.3196
-91.0196 39.3636 38.176
-90.9919 40.4451 58.9523
-92.8769 38.9642 81.0089
-92.3471 38.3663 98.1138
-104.46 56.9018 -102.253
-102.124 56.0668 -79.7874
-102.721 56.6165 -59.1683
-103.863 56.0823 -39.9445
-102.93 55.1091 -19.8975
-101.811 56.0431 -0.258216
-102.009 55.6732 20.0336
-103.009 56.0912 39.0019
-101.898 55.1596 59.5739
-100.211 58.5728 79.9932
-101.583 57.056 100.091
15.2919 -109.083 -100.281
12.9254 -107.168 -79.3191
14.6067 -106.053 -60.1077
13.1124 -107.443 -39.4593
16.1775 -106.994 -21.6815
13.3 -105.874 0.174607
15.7269 -107.205 19.9314
13.8871 -106.132 39.8028
16.5951 -105.638 60.602
15.1777 -104.629 79.0269
16.6905 -105.642 100.341
6.47809 -90.106 -98.4605
4.9907 -91.9366 -80.7813
6.3296 -90.1516 -59.6258
4.25507 -89.4484 -39.3869
6.18129 -88.9217 -20.0088
5.72885 -89.4447 0.125769
6.95949 -88.7307 18.2143
4.21722 -90.4257 41.0661
6.94983 -88.4927 59.5178
3.97691 -89.9803 80.7578
5.83175 -91.4486 100.137
-3.6216 -71.9187 -99.87
-5.62366 -72.9973 -80.3378
-4.4773 -71.7613 -61.0936
-6.83339 -72.3831 -42.382
-5.31881 -71.2507 -19.7588
-2.21122 -70.6258 -0.309519
-3.06868 -73.103 19.8586
-4.26341 -73.8298 39.1999
-4.62623 -72.9919 59.4986
-4.8094 -73.1934 79.7059
-5.60903 -71.5958 101.153
-13.808 -54.9353 -100.088
-14.6377 -55.3472 -78.045
-13.4386 -54.1865 -58.7568
-14.426 -55.3158 -41.1247
-13.487 -54.0396 -18.0014
-14.6088 -55.7133 0.712691
-15.4666 -53.7139 20.2038
-14.4957 -53.9851 38.8537
-11.8644 -55.71 60.0787
-15.0123 -55.1966 80.8617
-14.6128 -53.8423 98.6803
-24.8038 -38.6716 -98.0181
-22.983 -36.1548 -79.586
-24.0213 -38.0343 -59.3378
-24.7825 -36.2933 -39.0777
-22.7107 -38.2507 -20.0913
-23.9426 -36.7802 0.589976
-23.6661 -36.8668 20.0951
-26.0601 -36.1253 39.8498
-25.1364 -37.6983 60.4653
-24.3906 -36.5941 80.0809
-24.3263 -37.4563 99.2877
-34.3693 -19.2953 -99.2329
-34.5906 -19.7648 -78.851
-35.2713 -20.8041 -57.7989
-33.8399 -21.0585 -38.5115
-34.0864 -20.609 -22.0963
-34.5931 -20.9985 -1.53618
-34.265 -21.0939 21.2987
-33.7736 -19.7457 38.2626
-34.3189 -21.1793 58.6979
-33.1092 -19.1132 80.5707
-34.2908 -18.7851 99.7674
-44.8568 -2.56347 -99.4267
-44.9583 -2.27604 -78.3258
-45.4344 -3.70486 -60.0276
-46.1272 -1.45515 -39.1608
-43.3618 -3.45601 -19.8225
-45.499 -4.10304 1.66703
-45.4418 -2.81644 21.2168
-45.6813 -2.75059 39.7296
-42.3575 -2.93697 59.6604
-44.897 -2.45817 81.8223
-45.8571 -1.60684 99.1684
-54.7699 12.5817 -98.9971
-55.9006 13.3707 -80.9611
-55.4768 14.9669 -60.5203
-54.0502 16.378 -39.6285
-54.2095 14.9786 -20.557
-55.6725 16.3994 0.402605
-54.9684 14.9225 19.842
-54.0286 14.5122 38.0365
-54.6686 16.9083 60.3479
-52.9386 15.6861 80.5282
-56.6443 14.9356 101.037
-65.0092 33.3224 -102.175
-64.3579 32.3181 -79.9875
-63.1749 33.7461 -60.339
-63.6462 30.5749 -40.1275
-65.2585 30.8034 -19.3291
-64.7253 31.914 -1.05163
-65.9055 31.8629 20.5147
-64.2936 32.173 40.1772
-63.853 33.3159 59.2695
-63.1506 31.613 79.8129
-65.2028 30.3662 98.3711
-73.9909 48.0904 -100.1
-74.3162 50.0476 -79.0192
-74.1626 49.5539 -61.0308
-73.1871 48.1632 -40.9184
-74.7094 49.6023 -18.0491
-74.7391 48.5528 0.177821
-73.5162 48.2752 21.2312
-73.8933 46.065 38.9518
-75.251 48.7333 60.0556
-75.1144 48.6301 79.9213
-75.4174 49.8757 99.8417
-85.0944 66.2196 -99.6942
-84.848 67.1263 -80.0178
-84.6267 66.8467 -59.9027
-84.3557 66.9225 -40.0307
-86.3095 65.8416 -20.0327
-85.6726 66.5594 -1.61706
-83.7411 65.61 18.3764
-86.3014 67.2053 40.2921
-85.5101 66.9659 59.9598
-83.55 66.827 80.2527
-84.0727 65.8099 100.075
33.0284 -97.4082 -98.617
33.9933 -94.4536 -82.2625
34.03 -98.6646 -59.6607
32.0846 -95.5508 -39.1229
33.1761 -96.6812 -18.6253
32.6862 -96.7717 0.531657
31.0612 -98.0353 20.0055
33.5507 -94.7878 40.6164
32.7683 -97.4551 60.2512
32.8894 -97.9667 80.7827
32.1411 -94.8211 101.115
24.0155 -80.0339 -100.249
23.5007 -78.9579 -78.9293
21.8913 -80.8396 -59.4807
22.2598 -78.8489 -40.7742
21.9208 -80.1857 -19.5259
21.6859 -80.6638 -1.25371
23.8771 -79.0765 19.372
21.9702 -80.5878 39.8544
21.1302 -78.8038 59.6969
22.5795 -79.5281 78.4556
22.5205 -79.375 98.8778
12.0292 -62.8405 -100.745
14.1546 -61.7801 -79.0497
11.9289 -62.3476 -58.7506
12.7497 -62.0108 -40.3265
12.9179 -62.1138 -21.2705
14.6865 -63.4457 1.47331
14.3089 -62.2615 18.8338
13.5968 -61.4125 40.4755
13.7768 -60.8635 60.2361
10.7726 -59.9362 79.5058
11.984 -63.6767 101.466
2.88104 -43.5754 -99.3127
1.33932 -45.1457 -80.605
3.69287 -45.1687 -59.5952
3.81492 -43.9191 -40.6333
2.42588 -45.3098 -21.3833
1.20656 -45.5967 1.3316
2.57443 -42.7231 21.2748
1.98824 -44.3062 39.5165
3.16119 -44.4993 61.9658
2.09244 -46.2263 81.4816
2.17612 -44.8453 100.339
-6.97331 -26.1981 -99.8826
-7.63188 -27.0056 -80.5166
-7.63066 -28.9371 -61.9067
-8.86243 -28.0002 -40.6571
-5.70693 -29.3012 -19.5649
-8.26775 -28.1421 -0.614932
-7.83571 -28.9234 18.9878
-6.42588 -28.1926 39.722
-7.01742 -26.3492 57.8523
-4.77254 -26.5898 79.078
-7.58946 -26.4352 99.1057
-17.7131 -10.3703 -99.3256
-16.5193 -7.41921 -80.547
-15.7403 -10.7148 -58.9549
-18.6969 -10.8949 -39.6169
-18.7984 -8.14082 -19.7135
-16.8575 -9.89711 0.171355
-15.9454 -9.81823 20.0477
-17.4795 -11.6774 39.8203
-17.3227 -10.6223 59.2116
-19.5608 -11.6215 82.6945
-18.2068 -9.65441 99.0894
-27.4772 7.17132 -100.195
-27.0757 7.34093 -80.4149
-26.0611 6.0636 -58.886
-27.583 7.60336 -40.1708
-29.5201 7.93972 -20.2998
-27.8063 7.92386 0.775389
-27.4067 7.00053 19.372
-25.6018 8.41664 39.2479
-27.9179 9.41936 59.8179
-27.5158 5.6836 81.2099
-26.6628 8.36007 101.014
-36.5145 24.6327 -100.546
-36.955 24.7182 -77.7891
-37.26 26.4631 -60.0026
-38.1333 22.9309 -42.3629
-36.22 22.4247 -18.8537
-37.6732 24.8641 -0.0539536
-36.3351 25.1871 18.9024
-37.3342 25.5175 41.2633
-38.0075 24.1038 59.6547
-37.2607 25.3959 79.7357
-37.7942 24.0814 97.325
-46.3368 43.2421 -100.706
-49.1962 41.8526 -80.932
-46.1245 41.8702 -61.1862
-46.5136 41.852 -39.056
-46.3154 40.7857 -20.6885
-49.2043 43.2014 1.38982
-47.7915 43.5428 19.0286
-48.5343 40.1799 39.5067
-47.4219 43.3131 57.1786
-45.3949 41.4107 79.6186
-47.4024 42.3091 99.8068
-56.0069 60.8137 -101.142
-57.5299 57.8946 -80.1392
-56.8194 59.2962 -59.1956
-55.4724 61.0655 -40.6793
-55.9541 59.0853 -20.4469
-57.6528 59.6106 0.472084
-57.7896 59.0543 18.3454
-56.6735 59.4328 39.7296
-59.1144 59.4881 59.8304
-58.1788 58.9376 79.5995
-56.8053 58.6614 100.389
-68.3554 76.782 -100.229
-68.9203 76.9499 -79.0513
-67.0092 77.3627 -60.0313
-65.5744 77.1073 -40.0577
-67.8892 77.5007 -18.9781
-67.0011 75.1275 -0.424805
-68.2943 76.7123 20.0062
-67.4259 77.3951 38.0642
-68.2581 76.6493 61.1656
-66.8686 76.705 80.2108
-65.3186 77.5372 100.385
49.9668 -86.3825 -101.012
51.3986 -86.2879 -80.4213
51.1171 -84.9739 -60.4059
50.0095 -87.0037 -39.2584
50.2284 -86.4728 -18.9238
51.0217 -86.7034 -1.81048
48.3644 -86.6778 19.2065
50.9773 -84.2996 41.072
48.9323 -87.7032 58.8159
50.035 -87.5758 80.0981
50.1609 -85.6057 97.4115
42.0735 -69.527 -100.001
40.4126 -69.6869 -80.3683
39.7817 -70.2996 -60.2421
38.1834 -67.2013 -40.1658
40.8041 -69.1649 -22.4622
39.0768 -70.255 0.170565
41.8968 -69.049 19.8127
39.5905 -68.3497 38.8228
40.8026 -67.434 60.4354
40.9618 -69.5213 78.1439
39.2976 -67.4098 100.555
28.9025 -52.0015 -100.432
30.7718 -51.5761 -77.5104
29.7346 -51.8761 -58.8441
29.4591 -52.0538 -42.1424
30.4165 -51.188 -20.084
31.7924 -52.2884 -0.923721
28.4385 -52.2741 20.2873
30.1953 -53.0775 40.5144
30.134 -51.4901 60.9966
30.4951 -51.9895 78.7461
29.5433 -51.6604 100.924
18.6174 -34.327 -99.5088
20.4289 -36.5858 -80.0153
18.1258 -35.0186 -59.6518
20.9849 -34.2924 -41.8695
20.1627 -34.2539 -18.4825
20.6403 -33.996 -0.326715
19.2283 -34.9673 19.5877
22.1211 -34.5217 40.3429
22.2331 -35.6876 59.5087
21.0722 -34.1013 78.7458
21.038 -33.3684 100.169
10.4941 -18.1141 -99.1449
10.0301 -17.0892 -78.2271
10.4129 -18.3701 -62.8844
7.91929 -18.1583 -41.174
9.28111 -16.5997 -21.8387
9.57459 -19.2888 0.523636
10.6878 -18.106 20.4377
12.7367 -14.9914 39.0033
10.9813 -17.8794 59.7525
9.31558 -18.5274 81.2955
9.84186 -17.9831 102.265
-0.241789 -1.4643 -100.76
1.03111 0.786776 -79.912
1.13421 -0.305615 -58.0951
0.919554 -0.847339 -38.6661
-0.286515 -0.0510353 -19.9321
-1.54127 -1.43338 -0.34155
-2.07848 0.289534 20.3861
0.690093 0.637956 39.7202
1.76819 0.263158 59.5018
0.0304502 -1.4014 81.2411
0.790878 -0.150489 100.234
-8.90771 16.9329 -101.734
-11.1032 17.4077 -79.8004
-10.1084 17.8604 -59.7108
-9.48755 16.9181 -38.815
-10.1641 17.319 -21.0439
-10.3112 15.8401 1.38243
-10.2799 17.1624 18.4037
-10.3068 17.8574 40.5161
-8.99485 16.4636 59.3161
-9.23904 18.9641 77.5754
-10.8893 16.8652 100.14
-20.5213 34.8133 -99.179
-18.1784 35.236 -81.0064
-21.0848 34.7743 -60.1455
-19.4415 35.2212 -38.7943
-19.0954 33.9591 -21.0759
-20.4969 35.118 0.85463
-19.6056 33.9212 20.137
-19.4014 35.4337 40.123
-19.3109 33.4219 60.9252
-20.2345 34.8926 80.7407
-19.5568 34.3092 100.727
-29.6486 51.648 -101.126
-30.4111 53.8881 -79.6988
-31.1641 50.4978 -58.984
-30.7314 51.4451 -41.0429
-30.2436 53.3061 -20.5313
-29.7168 50.9018 1.28059
-29.1801 52.1615 17.9587
-31.208 51.5976 40.1432
-31.8899 51.4431 58.015
-29.678 54.6889 79.9528
-28.7737 51.0887 98.7691
-40.2824 69.972 -100.703
-39.9525 68.9508 -79.7701
-38.414 68.1737 -60.8623
-37.6083 68.2916 -41.208
-40.3269 67.6013 -21.6927
-38.7372 66.6753 -1.0029
-40.0268 70.7271 17.6263
-39.5748 68.5884 40.0264
-40.2174 70.2802 60.7487
-40.3153 69.5637 82.126
-40.231 68.9108 99.6894
-51.2359 86.0077 -100.801
-49.3493 86.3296 -80.0786
-50.3633 84.571 -59.0373
-49.7786 86.6978 -41.1764
-50.1165 87.2916 -19.7725
-49.0119 87.6958 -1.83679
-48.9451 85.6676 20.7852
-51.1876 85.3939 38.7752
-49.2629 87.7222 60.2922
-50.8712 86.7699 78.3778
-49.8445 88.5916 100.18
65.8387 -76.0808 -99.9891
67.5688 -78.5676 -79.1833
69.2999 -75.4172 -60.7502
66.8431 -75.6062 -40.2703
67.6769 -75.8529 -20.2475
67.4545 -76.6365 -1.23887
66.7099 -76.3075 19.0983
66.9823 -75.9216 40.388
67.3916 -78.1063 58.6821
68.9479 -79.0471 80.3839
65.6941 -79.0519 98.2222
55.9168 -60.2345 -100.906
56.9986 -60.3821 -80.1006
56.7671 -60.8262 -61.5737
55.7214 -58.5976 -40.1557
57.2662 -60.3184 -21.3478
57.4265 -60.0821 1.17062
56.9884 -59.0082 18.8153
55.789 -60.8089 40.2872
58.2072 -60.0096 58.1978
58.2762 -58.9968 79.6446
57.3454 -59.1818 101.107
46.9967 -43.8849 -101.664
46.3627 -40.1335 -80.9028
47.5007 -41.228 -59.4374
48.368 -42.7534 -40.1101
46.2464 -39.718 -21.3617
48.4344 -41.2367 0.977085
47.2958 -42.2278 21.9112
47.5706 -42.6329 41.0676
48.0102 -42.4744 59.5264
47.1558 -40.8056 81.1137
45.8955 -41.0388 100.419
37.3067 -24.2147 -101.492
37.1926 -24.4033 -80.0291
37.8681 -24.3201 -59.1794
37.9476 -24.1158 -41.8106
36.8878 -24.8241 -20.8581
37.2122 -23.9412 0.478487
36.8657 -25.0368 19.1096
38.6092 -23.8094 40.358
38.9606 -24.0376 59.4771
39.5425 -23.1476 80.3502
36.7098 -25.73 99.4179
26.79 -7.13903 -99.274
28.4405 -8.06009 -80.9262
28.1013 -8.17773 -59.6949
26.3995 -7.38226 -41.5482
26.1087 -7.50525 -20.4525
27.0209 -8.37017 -0.886754
26.8267 -6.96585 20.244
26.6188 -8.03692 41.0212
28.1038 -7.05466 61.7101
27.1985 -7.68836 79.8739
26.1491 -7.40074 99.8193
16.4111 10.8604 -100.254
17.2468 9.52087 -79.7352
17.3303 9.14961 -60.286
17.6448 10.2068 -38.9882
17.5585 10.0814 -18.2778
18.7731 7.7591 -0.99887
15.334 10.4765 20.1317
15.1829 9.76529 40.2793
19.6061 7.68151 59.0576
17.1035 9.90913 80.7013
18.5369 10.6599 100.188
8.13312 25.9295 -100.104
7.94651 28.8745 -79.0676
7.86281 27.9453 -61.1798
6.50285 28.2779 -40.4903
5.52193 26.7714 -20.3215
7.93476 27.7713 -1.61611
5.12301 29.2772 21.1855
8.94939 27.3601 39.2884
5.23028 27.0375 61.0187
8.08733 28.6465 80.0892
6.52809 26.216 101.71
-2.17756 44.1164 -98.7618
-3.79338 42.8873 -80.2897
-1.90159 45.6203 -60.2034
-3.53855 43.0355 -38.1923
-3.47736 45.0778 -21.8655
-3.4406 45.1346 -0.99281
-2.09984 45.6498 22.6165
-1.52203 43.5574 40.2392
-2.49971 43.8585 59.2585
-3.21128 47.0834 80.1556
-0.57415 45.9951 98.736
-13.5795 61.8177 -99.366
-11.8227 61.7056 -80.8409
-12.253 63.4092 -60.6889
-13.1415 63.207 -40.5645
-12.7773 61.4619 -22.1569
-14.6699 62.5052 0.639712
-11.1237 61.6541 20.9975
-11.9584 62.3631 39.2716
-12.5471 61.6536 60.3841
-13.669 61.5088 80.975
-12.6763 62.8054 99.5084
-23.4899 79.2962 -99.1675
-22.7536 80.0454 -79.7944
-22.4734 79.2203 -58.7385
-22.3566 78.6562 -40.0498
-21.8823 78.8827 -21.4285
-21.6781 79.3114 0.60498
-22.16 80.4357 21.007
-22.3112 79.1888 40.2818
-24.1554 80.2212 60.1332
-20.4074 80.7077 80.0759
-22.8243 79.0654 100.713
-31.4821 97.5794 -99.5736
-31.3589 96.2952 -80.3642
-31.6612 95.716 -60.9025
-32.9334 97.648 -39.0412
-32.8807 97.0116 -21.0349
-31.0619 98.1287 -0.0577682
-33.4653 96.7791 19.4653
-31.8317 97.6353 38.8652
-32.703 97.0143 58.5653
-32.9139 95.7322 81.8627
-33.2048 96.88 100.087
84.0811 -66.7539 -100.738
86.3426 -67.4779 -79.3832
86.599 -65.6728 -59.9761
85.0611 -67.5413 -40.8189
85.4396 -66.5263 -20.0471
85.5287 -67.7154 0.042962
81.9387 -67.4972 20.1872
86.015 -66.2876 40.8547
84.7911 -66.823 60.4034
84.9701 -67.0418 79.5573
83.2085 -67.398 101.896
73.3651 -50.0233 -98.5743
73.75 -49.2031 -79.3912
75.0361 -48.6751 -59.1714
74.1277 -48.5755 -40.6449
74.8798 -49.553 -21.0244
75.7566 -49.9709 1.81074
74.2266 -47.1352 19.6694
74.7347 -49.4132 40.3846
75.953 -47.6889 59.7089
73.1452 -50.3949 78.863
76.1961 -49.0526 100.508
65.36 -32.4211 -98.5479
65.4559 -32.5647 -77.3086
64.4463 -32.7355 -59.8771
64.3523 -33.4164 -39.3259
62.8071 -31.5048 -19.5691
64.77 -31.0369 0.0902811
64.7715 -32.3989 19.8525
63.3346 -32.9771 39.8797
64.4942 -34.2909 59.9119
66.303 -32.188 80.1286
65.3349 -32.3756 99.157
54.7437 -15.143 -99.7249
53.9141 -13.795 -81.4031
55.1965 -15.2499 -58.693
53.3769 -13.9469 -40.2928
54.9819 -14.9218 -20.3241
53.2916 -13.5818 -0.0429235
55.6407 -12.9504 18.7503
53.669 -12.5787 41.0911
55.4088 -13.5643 60.8046
54.8052 -13.6388 78.5573
57.5339 -13.0774 99.3198
45.0578 2.82134 -98.214
45.4288 3.23983 -79.874
45.8568 3.38419 -61.0464
44.0677 3.29257 -40.7434
43.6159 3.91607 -20.0416
47.09 3.72319 1.11338
44.4649 2.13697 20.881
43.2051 3.67555 39.6591
45.1406 3.42661 58.1851
43.621 1.83596 80.2824
44.1716 1.83245 99.5641
35.4064 19.8215 -98.6966
33.2426 18.741 -78.9048
35.2056 20.3208 -60.8539
36.1691 20.5272 -38.2827
34.4156 19.0163 -19.9506
34.6991 20.1319 0.367577
33.6695 19.7243 18.4545
33.8678 21.6236 40.658
34.9677 19.3349 59.5066
34.4758 17.7166 79.7626
34.8299 20.6179 97.8502
23.2431 36.5197 -97.4984
24.0479 38.6268 -81.2687
25.7368 38.9275 -61.405
24.5048 37.0256 -39.813
26.4654 38.839 -17.5227
26.0434 37.5409 0.334193
24.6672 37.5291 19.5771
24.3934 38.0121 40.6171
22.7227 37.0685 60.6553
25.9034 35.5917 79.6432
25.63 37.3762 100.107
13.945 54.3162 -100.273
15.7525 53.9409 -79.1466
15.5769 55.3197 -60.3278
15.1811 56.5146 -37.7372
12.7639 54.6026 -18.7125
15.1892 53.7592 -0.0433591
15.6179 55.2128 19.7949
12.3319 52.9527 38.8063
13.4526 53.7331 59.0729
12.7 54.6596 78.3359
13.5578 54.6348 99.9321
4.90037 69.6722 -101.329
3.6881 69.9676 -81.2395
1.96172 72.4888 -59.7582
5.88596 72.8079 -40.2515
6.22462 73.1585 -22.7701
4.99269 71.1955 0.133526
5.02118 71.4011 21.1636
3.64675 70.9086 39.799
4.37344 72.4216 59.7841
5.14625 72.02 81.3692
4.59677 72.3012 100.651
-6.6627 89.2976 -99.4326
-5.6618 88.1071 -81.1771
-5.19692 90.1219 -59.6476
-5.43967 89.1146 -38.7613
-4.6692 88.6638 -19.8826
-4.7321 89.7246 -0.197492
-6.32166 88.3446 20.2825
-7.4761 88.8582 40.0487
-5.22295 88.6098 60.9441
-5.5906 89.7439 81.5777
-5.0585 88.9547 101.096
-15.0923 108.691 -100.962
-16.6728 106.237 -79.0335
-15.0638 106.682 -58.5962
-15.1943 107.836 -40.3062
-15.0675 106.295 -20.7116
-14.3282 106.042 1.15175
-15.016 106.875 19.8008
-14.6333 107.327 38.2341
-14.6584 105.098 59.0741
-14.9163 106.388 81.5697
-14.7941 108.357 99.592
101.749 -56.8466 -100.019
101 -55.0323 -81.1445
101.685 -57.7129 -59.5048
102.253 -56.6811 -40.7581
101.194 -58.0908 -19.0636
101.622 -57.051 -0.786013
102.763 -57.7822 20.7269
102.059 -57.2818 39.1965
100.863 -57.7734 60.5998
100.946 -55.602 80.1548
102.516 -57.9437 99.1206
92.35 -39.4064 -100.588
90.9195 -38.4709 -80.1417
91.0022 -39.6393 -59.8842
90.5379 -39.1304 -40.0872
91.9312 -40.3583 -19.7081
92.3302 -40.2644 -2.10593
90.8608 -38.8772 20.8208
91.6329 -39.8078 39.0122
91.1811 -40.1799 58.1682
93.3211 -41.0018 80.2975
92.6762 -39.8202 99.3779
80.7313 -21.6485 -99.0019
81.5543 -22.5863 -79.9651
80.5907 -20.9935 -60.8262
82.5206 -19.6518 -38.9782
81.924 -24.0473 -19.5267
80.6874 -21.6006 -2.25985
81.8379 -22.3805 20.3786
82.4998 -22.1845 41.2914
83.4777 -20.9851 60.2924
84.4705 -21.2032 80.4303
82.1142 -22.643 100.138
72.8002 -3.18553 -98.7601
72.207 -4.7907 -80.6438
70.472 -3.42043 -58.5687
72.2304 -5.25197 -40.944
70.6115 -3.266 -20.8178
72.867 -5.22405 -1.59166
71.928 -6.28026 20.3725
69.1102 -5.06055 39.0834
72.2709 -5.812 61.3261
71.6565 -5.11943 79.9782
71.7682 -4.37086 100.978
63.2476 12.1377 -101.316
62.8647 12.7725 -80.582
63.7528 13.375 -59.5969
62.5381 11.3632 -38.7466
61.8455 10.5456 -20.4593
62.7948 12.218 -0.706872
62.2821 14.088 21.865
61.7676 10.7356 39.8381
61.4527 11.8248 59.4575
62.4043 11.5253 80.3896
60.2229 13.2804 98.3476
51.3007 29.2338 -100.282
52.1267 31.8102 -80.0033
51.9261 31.3456 -58.4715
51.3432 29.3399 -40.6964
52.1062 31.7596 -22.567
53.1758 31.2064 -1.10028
52.2688 28.9682 21.6118
51.8184 31.4477 39.8873
52.3995 30.0671 59.5761
53.4924 28.5705 80.2782
50.5551 30.0512 98.4609
40.0952 47.0366 -101.358
42.3332 48.6516 -78.6445
39.1776 46.5936 -57.6682
41.779 49.5329 -38.6535
43.0184 47.2674 -18.753
42.6037 46.4659 -0.495403
40.594 47.2634 19.9168
42.6178 49.2858 39.4832
43.7248 46.6381 60.0716
43.0596 47.3717 79.7865
41.7835 47.5696 99.119
32.3997 62.5502 -99.8722
31.1152 64.3437 -78.8413
30.9901 65.0764 -61.3317
31.3708 63.3788 -39.9649
32.9834 64.3867 -22.6294
32.4261 65.3319 0.350805
32.5535 65.3656 20.4069
31.172 64.5829 40.1997
32.0604 65.0311 59.3397
30.7146 66.4048 78.2853
32.0078 64.0161 100.728
23.6151 82.7508 -98.5682
19.9936 83.148 -82.3374
22.7171 81.9824 -58.9223
21.3163 80.9634 -41.646
23.3153 81.694 -21.1457
20.1329 82.5021 0.219103
22.0844 82.8841 22.7058
24.128 79.7957 39.1552
21.9494 84.0988 60.2772
21.1256 82.0742 81.9873
22.9432 83.2959 101.66
12.472 99.9054 -98.8208
12.9539 99.6598 -79.4503
13.194 98.2057 -61.6365
11.9239 99.1652 -41.2966
12.8465 99.5264 -20.5261
11.3639 100.863 0.371586
12.1299 99.6651 20.8231
13.0172 98.9263 39.9099
11.4276 99.5682 60.0124
11.3839 99.8381 81.6204
11.724 99.378 99.915
1.91255 115.71 -99.9865
-0.689511 116.302 -79.0248
3.28133 117.214 -59.5731
2.25378 115.474 -40.6206
1.26921 117.885 -21.7896
2.25305 115.872 -0.155987
0.460044 116.232 21.6957
0.687539 115.117 42.1701
2.13055 115.784 61.0379
2.13671 116.796 81.6615
1.86801 115.283 99.5953
118.544 -46.1791 -99.0359
118.342 -46.4107 -79.792
120.242 -46.6764 -60.8297
117.98 -45.5039 -40.1955
120.763 -46.7459 -21.4464
117.331 -46.8291 0.427659
119.572 -46.7234 20.3295
119.563 -46.1205 40.4893
119.037 -47.1926 61.7319
118.659 -47.622 78.4946
119.415 -47.1561 100.883
107.348 -28.1751 -98.5448
108.799 -29.1283 -78.1831
110.204 -28.7695 -61.1489
108.109 -30.9505 -41.2724
109.457 -28.6255 -19.4468
108.589 -28.5877 -0.192043
110.164 -28.0928 21.3496
110.215 -28.3614 38.4206
109.504 -30.8464 59.5825
110.819 -29.5416 79.0515
110.407 -30.3757 100.297
101.065 -12.9747 -100.213
100.986 -13.3741 -80.0627
98.7966 -12.4498 -58.7453
98.9025 -11.2152 -39.6012
99.4895 -13.1636 -19.37
98.5939 -13.7077 -0.423728
98.4232 -11.5124 19.1756
99.0334 -9.87479 39.4121
98.5673 -13.0345 57.2788
97.4826 -11.5836 79.8604
99.8066 -10.5343 100.566
89.4616 6.7476 -97.7806
88.299 7.51314 -79.3586
90.7543 5.30486 -59.548
91.178 4.33479 -40.5504
88.9881 6.39806 -21.8071
88.2264 5.59303 1.97703
89.3597 3.76776 19.9716
89.1522 4.84674 41.4888
87.7487 3.48229 60.6769
90.7924 5.64153 80.1432
88.8102 5.90659 100.581
78.5192 23.5177 -101.213
78.4004 22.0419 -79.9431
78.5136 21.8868 -59.7871
81.9404 23.4998 -41.6105
79.5681 22.3605 -20.6261
80.0334 23.8653 -0.0850707
81.0352 24.2716 19.8192
80.0701 22.8855 39.8153
78.9536 22.3405 60.6077
79.5785 21.5215 79.0809
79.7363 22.4523 101.457
69.1373 38.0442 -100.728
70.723 39.1106 -80.1389
68.3392 40.8617 -60.4013
71.1637 41.852 -39.3088
69.1625 38.8023 -22.2157
69.0981 40.3944 1.16594
70.3131 40.2253 19.0547
69.5802 38.2732 40.9147
70.3665 41.0623 58.8762
69.6811 41.1419 79.4892
69.0039 41.2874 97.8037
60.6835 58.1125 -100.029
58.8661 56.0554 -80.62
58.1353 55.5944 -58.9914
59.5143 59.7471 -39.1734
60.227 57.4093 -20.9816
59.7081 58.4253 -0.523937
56.6711 57.1899 19.9597
59.1442 56.726 41.1756
58.8277 56.6444 59.8199
59.2747 56.7087 79.8618
59.4051 59.053 99.9605
48.0049 73.6042 -100.851
50.7614 74.154 -79.9679
48.0248 73.511 -59.9388
48.351 74.659 -41.9695
49.069 73.9804 -20.7467
48.9139 74.1457 0.687621
51.2938 74.5369 19.9237
48.8985 74.4646 39.8663
50.573 75.9256 59.9622
48.4348 74.8874 79.802
50.419 74.4208 100.657
38.573 93.0683 -97.3676
37.9728 92.0723 -81.9163
39.822 90.4829 -60.7932
38.2704 91.77 -41.1386
39.1172 92.2862 -19.5736
39.3232 92.0703 1.74855
40.6208 91.2485 19.8395
40.404 92.1584 39.7871
39.7098 92.5624 58.9922
39.3204 91.3348 78.1877
37.9565 92.541 98.2137
30.2979 107.874 -99.8271
29.8095 109.618 -79.3519
28.2521 108.946 -59.2415
28.9062 110.535 -38.8952
26.7488 110.419 -18.3628
29.0829 108.822 -0.543329
28.7638 109.345 18.2002
29.2666 108.775 41.1033
28.2266 109.63 61.3364
30.2116 109.013 79.1009
29.8777 108.484 100.861
18.9442 127.035 -98.9444
20.4831 127.085 -79.143
18.1414 126.281 -58.9872
18.7173 128.494 -41.9388
20.8048 127.216 -20.0336
17.5682 126.121 -0.475811
21.1587 126.986 18.2876
18.8511 127.265 39.0961
18.9814 126.805 60.9679
18.8579 124.821 78.8227
17.8781 125.936 99.5703
136.637 -37.1563 -100.154
134.665 -35.3248 -80.7554
136.541 -35.7847 -59.7102
136.414 -36.0516 -39.9074
135.774 -36.9906 -19.4116
136.939 -35.5009 -0.876752
135.998 -36.5463 21.8144
137.422 -37.6545 39.9707
137.24 -38.0214 61.2438
136.392 -37.1603 78.2686
136.282 -34.2156 100.018
128.319 -19.9137 -101.026
126.727 -18.2432 -79.2388
127.329 -19.5923 -61.0667
128.39 -18.9292 -39.525
126.876 -20.2635 -20.3547
125.842 -18.2612 -0.900008
127.251 -19.7052 19.2372
127.434 -19.2632 38.6282
126.614 -18.3329 60.3924
127.266 -18.9629 81.5875
126.496 -18.043 99.5694
116.484 -1.06543 -99.4681
117.766 -2.23759 -79.8449
115.353 -2.44101 -59.1181
116.546 -2.93548 -40.9359
116.322 -1.31629 -19.3544
115.227 -2.70513 0.587791
115.124 -2.30289 18.8261
116.048 -2.74649 40.3572
116.051 -1.03223 59.8123
116.766 -0.597962 78.3016
115.661 -1.43441 99.6231
105.868 14.9679 -98.4706
109.538 15.7552 -81.2192
106.245 15.1353 -59.4278
105.735 15.207 -38.3565
107.827 15.4951 -19.1368
106.967 14.6756 1.46373
105.631 16.3721 20.8045
107.353 14.5398 41.9147
105.981 16.1025 60.1518
108.396 15.9869 80.0995
107.414 16.36 98.8678
96.693 32.0531 -99.4535
96.4788 33.0859 -78.6807
95.2423 31.8076 -59.1719
96.6042 34.4739 -38.292
96.9051 32.126 -20.1357
96.3835 31.7924 -0.640539
96.9038 33.1561 20.6181
97.8836 33.7838 38.5144
95.909 30.9272 57.2637
97.5134 33.1782 78.996
96.2535 31.9275 99.7798
86.9938 50.7671 -99.7954
88.0624 50.3287 -81.3299
86.8785 51.3328 -59.0688
86.2791 50.5938 -39.8506
86.1764 49.1335 -19.7503
87.0922 48.8231 1.0823
87.9119 51.7254 20.7731
87.2081 47.0118 40.4776
87.2436 50.9177 61.1538
86.0669 48.2764 82.2207
87.0751 49.59 99.0889
76.6506 69.0547 -100.066
77.2111 69.4724 -80.6319
76.0522 68.1075 -59.5673
77.541 66.3125 -39.4662
76.5301 66.2758 -21.2633
75.5048 65.1097 0.461757
77.1758 67.2729 21.504
78.0472 68.9898 41.3741
77.2636 67.1857 60.8777
75.9447 68.2496 80.4553
77.7659 66.6752 100.851
67.5563 85.617 -101.095
67.0313 84.7436 -81.1841
65.8278 85.5135 -6
