ply
format ascii 1.0
comment created by 3d_to_ply
element vertex 50
property float32 x
property float32 y
property float32 z
property uint8 red
property uint8 green
property uint8 blue
end_header
18.000000 6.339750 10.000000 255 255 255
15.500000 10.669870 10.000000 255 255 255
13.000000 15.000000 10.000000 255 255 255
10.500000 19.330100 10.000000 255 255 255
8.000000 23.660300 10.000000 255 255 255
18.000000 6.339750 5.000000 255 255 255
15.500000 10.669870 5.000000 255 255 255
13.000000 15.000000 5.000000 255 255 255
10.500000 19.330100 5.000000 255 255 255
8.000000 23.660300 5.000000 255 255 255
18.000000 6.339750 0.000000 255 255 255
15.500000 10.669870 0.000000 255 255 255
13.000000 15.000000 0.000000 255 255 255
10.500000 19.330100 0.000000 255 255 255
8.000000 23.660300 0.000000 255 255 255
18.000000 6.339750 -5.000000 255 255 255
15.500000 10.669870 -5.000000 255 255 255
13.000000 15.000000 -5.000000 255 255 255
10.500000 19.330100 -5.000000 255 255 255
8.000000 23.660300 -5.000000 255 255 255
18.000000 6.339750 -10.000000 255 255 255
15.500000 10.669870 -10.000000 255 255 255
13.000000 15.000000 -10.000000 255 255 255
10.500000 19.330100 -10.000000 255 255 255
8.000000 23.660300 -10.000000 255 255 255
12.000000 13.071800 8.000000 255 255 255
10.000000 16.535900 8.000000 255 255 255
8.000000 20.000000 8.000000 255 255 255
6.000000 23.464100 8.000000 255 255 255
4.000000 26.928200 8.000000 255 255 255
12.000000 13.071800 4.000000 255 255 255
10.000000 16.535900 4.000000 255 255 255
8.000000 20.000000 4.000000 255 255 255
6.000000 23.464100 4.000000 255 255 255
4.000000 26.928200 4.000000 255 255 255
12.000000 13.071800 0.000000 255 255 255
10.000000 16.535900 0.000000 255 255 255
8.000000 20.000000 0.000000 255 255 255
6.000000 23.464100 0.000000 255 255 255
4.000000 26.928200 0.000000 255 255 255
12.000000 13.071800 -4.000000 255 255 255
10.000000 16.535900 -4.000000 255 255 255
8.000000 20.000000 -4.000000 255 255 255
6.000000 23.464100 -4.000000 255 255 255
4.000000 26.928200 -4.000000 255 255 255
12.000000 13.071800 -8.000000 255 255 255
10.000000 16.535900 -8.000000 255 255 255
8.000000 20.000000 -8.000000 255 255 255
6.000000 23.464100 -8.000000 255 255 255
4.000000 26.928200 -8.000000 255 255 255
