ply
format ascii 1.0
comment created by 3d_to_ply
element vertex 50
property float32 x
property float32 y
property float32 z
property uint8 red
property uint8 green
property uint8 blue
end_header
15.016658 15.990385 10.000000 255 255 255
10.686535 18.490378 10.000000 255 255 255
6.356406 20.990381 10.000000 255 255 255
2.026293 23.490358 10.000000 255 255 255
-2.303871 25.990421 10.000000 255 255 255
15.016658 15.990385 5.000000 255 255 255
10.686535 18.490378 5.000000 255 255 255
6.356406 20.990381 5.000000 255 255 255
2.026293 23.490358 5.000000 255 255 255
-2.303871 25.990421 5.000000 255 255 255
15.016658 15.990385 0.000000 255 255 255
10.686535 18.490378 0.000000 255 255 255
6.356406 20.990381 0.000000 255 255 255
2.026293 23.490358 0.000000 255 255 255
-2.303871 25.990421 0.000000 255 255 255
15.016658 15.990385 -5.000000 255 255 255
10.686535 18.490378 -5.000000 255 255 255
6.356406 20.990381 -5.000000 255 255 255
2.026293 23.490358 -5.000000 255 255 255
-2.303871 25.990421 -5.000000 255 255 255
15.016658 15.990385 -10.000000 255 255 255
10.686535 18.490378 -10.000000 255 255 255
6.356406 20.990381 -10.000000 255 255 255
2.026293 23.490358 -10.000000 255 255 255
-2.303871 25.990421 -10.000000 255 255 255
6.454481 18.820511 8.000000 255 255 255
2.990380 20.820509 8.000000 255 255 255
-0.473721 22.820508 8.000000 255 255 255
-3.937821 24.820507 8.000000 255 255 255
-7.401922 26.820505 8.000000 255 255 255
6.454481 18.820511 4.000000 255 255 255
2.990380 20.820509 4.000000 255 255 255
-0.473721 22.820508 4.000000 255 255 255
-3.937821 24.820507 4.000000 255 255 255
-7.401922 26.820505 4.000000 255 255 255
6.454481 18.820511 0.000000 255 255 255
2.990380 20.820509 0.000000 255 255 255
-0.473721 22.820508 0.000000 255 255 255
-3.937821 24.820507 0.000000 255 255 255
-7.401922 26.820505 0.000000 255 255 255
6.454481 18.820511 -4.000000 255 255 255
2.990380 20.820509 -4.000000 255 255 255
-0.473721 22.820508 -4.000000 255 255 255
-3.937821 24.820507 -4.000000 255 255 255
-7.401922 26.820505 -4.000000 255 255 255
6.454481 18.820511 -8.000000 255 255 255
2.990380 20.820509 -8.000000 255 255 255
-0.473721 22.820508 -8.000000 255 255 255
-3.937821 24.820507 -8.000000 255 255 255
-7.401922 26.820505 -8.000000 255 255 255
